ply
format ascii 1.0
comment
element vertex 1132
property float x
property float y
property float z
property uchar red
property uchar green
property uchar blue
element face 0
property list uchar int vertex_index
end_header
0.94799966	0.7919993	0.73999894	221	33	203
0.9505997	0.78939927	0.73999894	221	33	206
0.9531997	0.78679925	0.73999894	221	33	209
0.9557997	0.78419924	0.73999894	221	33	211
0.9583997	0.7815992	0.73999894	221	33	214
0.9609997	0.7789992	0.73999894	221	33	216
0.9635997	0.7763992	0.73999894	221	33	219
0.96619976	0.77379924	0.73999894	221	33	221
0.9687997	0.7711992	0.73999894	221	33	224
0.9713997	0.7685992	0.73999894	221	33	226
0.97399974	0.7659992	0.73999894	221	33	229
0.97659975	0.7633992	0.73999894	221	33	232
0.97919977	0.76079917	0.73999894	221	33	234
0.9817998	0.75819916	0.73999894	221	33	237
0.9843998	0.75559914	0.73999894	221	33	239
0.9869998	0.7529991	0.73999894	221	33	242
0.9895998	0.7503991	0.73999894	221	33	244
0.9921998	0.74779916	0.73999894	221	33	247
0.9947998	0.74519914	0.73999894	221	33	249
0.9973998	0.7425991	0.73999894	221	33	252
0.9999998	0.7399991	0.73999894	221	33	254
1.0	0.73999894	0.73999894	255	0	0
0.73999894	1.0	0.73999894	0	0	255
0.7599989	1.0	0.7599989	224	30	0
0.7623989	0.9976	0.7599989	224	30	2
0.76479894	0.9952	0.7599989	224	30	5
0.7671989	0.9928	0.7599989	224	30	7
0.76959896	0.99039996	0.7599989	224	30	10
0.771999	0.9879999	0.7599989	224	30	12
0.774399	0.98559994	0.7599989	224	30	15
0.77679896	0.98319995	0.7599989	224	30	17
0.779199	0.9807999	0.7599989	224	30	20
0.781599	0.97839993	0.7599989	224	30	22
0.783999	0.9759999	0.7599989	224	30	25
0.786399	0.97359985	0.7599989	224	30	28
0.78879905	0.97119987	0.7599989	224	30	30
0.791199	0.9687998	0.75999886	224	30	33
0.79359907	0.96639985	0.7599989	224	30	35
0.79599905	0.96399987	0.7599989	224	30	38
0.7983991	0.9615998	0.7599989	224	30	40
0.80079913	0.9591998	0.7599989	224	30	43
0.8031991	0.9567998	0.7599989	224	30	45
0.8055991	0.9543998	0.7599989	224	30	48
0.80799913	0.9519998	0.7599989	224	30	51
0.8103992	0.94959974	0.7599989	224	30	53
0.81279916	0.94719976	0.7599989	224	30	56
0.8151992	0.9447998	0.7599989	224	30	58
0.8175992	0.94239974	0.7599989	224	30	61
0.8199992	0.93999976	0.759999	224	30	63
0.82239926	0.9375998	0.7599989	224	30	66
0.8247992	0.93519974	0.7599989	224	30	68
0.8271992	0.9327997	0.7599989	224	30	71
0.82959926	0.9303997	0.7599989	224	30	73
0.8319993	0.92799973	0.7599989	224	30	76
0.8343992	0.9255997	0.7599989	224	30	79
0.83679926	0.9231997	0.759999	224	30	81
0.8391993	0.9207997	0.7599989	224	30	84
0.84159935	0.9183997	0.7599989	224	30	86
0.84399927	0.91599965	0.7599989	224	30	89
0.8463993	0.91359967	0.7599989	224	30	91
0.84879935	0.9111997	0.7599989	224	30	94
0.8511993	0.90879965	0.7599989	224	30	96
0.8535993	0.9063996	0.7599989	224	30	99
0.85599935	0.9039996	0.7599989	224	30	101
0.8583994	0.90159965	0.7599989	224	30	104
0.8607994	0.8991996	0.7599989	224	30	107
0.86319935	0.89679956	0.7599989	224	30	109
0.8655994	0.8943996	0.7599989	224	30	112
0.8679994	0.8919996	0.7599989	224	30	114
0.87039936	0.88959956	0.7599989	224	30	117
0.8727994	0.8871995	0.7599989	224	30	119
0.87519944	0.8847996	0.7599989	224	30	122
0.8775994	0.88239956	0.7599989	224	30	124
0.8799994	0.8799995	0.7599989	224	30	127
0.88239944	0.8775995	0.7599989	224	30	130
0.8847994	0.8751995	0.7599989	224	30	132
0.8871994	0.8727995	0.7599989	224	30	135
0.88959944	0.8703995	0.7599989	224	30	137
0.8919995	0.86799943	0.7599989	224	30	140
0.89439946	0.86559945	0.7599989	224	30	142
0.89679945	0.8631995	0.7599989	224	30	145
0.8991995	0.86079943	0.7599989	224	30	147
0.9015995	0.8583994	0.7599989	224	30	150
0.9039995	0.8559994	0.7599989	224	30	152
0.9063995	0.8535994	0.7599989	224	30	155
0.9087995	0.8511994	0.7599989	224	30	158
0.91119957	0.84879935	0.7599989	224	30	160
0.9135995	0.8463994	0.7599989	224	30	163
0.91599953	0.8439994	0.7599989	224	30	165
0.9183996	0.84159935	0.7599989	224	30	168
0.92079955	0.83919936	0.7599989	224	30	170
0.92319953	0.8367993	0.7599989	224	30	173
0.9255996	0.83439934	0.7599989	224	30	175
0.9279996	0.8319993	0.7599989	224	30	178
0.9303996	0.8295993	0.7599989	224	30	181
0.9327996	0.82719934	0.7599989	224	30	183
0.9351996	0.8247993	0.7599989	224	30	186
0.9375996	0.8223993	0.7599989	224	30	188
0.93999964	0.8199993	0.7599989	224	30	191
0.9423996	0.8175993	0.7599989	224	30	193
0.94479966	0.81519926	0.7599989	224	30	196
0.94719964	0.8127993	0.7599989	224	30	198
0.9495997	0.81039923	0.7599989	224	30	201
0.95199966	0.80799925	0.7599989	224	30	203
0.9543997	0.8055992	0.7599989	224	30	206
0.9567997	0.80319923	0.7599989	224	30	209
0.95919967	0.8007992	0.7599989	224	30	211
0.9615997	0.7983992	0.7599989	224	30	214
0.9639997	0.7959992	0.7599989	224	30	216
0.9663997	0.7935992	0.7599989	224	30	219
0.9687997	0.7911992	0.7599989	224	30	221
0.97119975	0.78879917	0.7599989	224	30	224
0.97359973	0.7863992	0.7599989	224	30	226
0.9759998	0.78399915	0.7599989	224	30	229
0.97839975	0.78159916	0.7599989	224	30	232
0.9807998	0.7791991	0.7599989	224	30	234
0.9831998	0.77679914	0.7599989	224	30	237
0.9855998	0.7743991	0.7599989	224	30	239
0.9879998	0.7719991	0.7599989	224	30	242
0.99039984	0.7695991	0.7599989	224	30	244
0.9927998	0.7671991	0.7599989	224	30	247
0.9951998	0.7647991	0.7599989	224	30	249
0.99759984	0.7623991	0.7599989	224	30	252
0.9999998	0.7599991	0.7599989	224	30	254
1.0	0.7599989	0.7599989	255	0	0
0.7599989	1.0	0.7599989	0	0	255
0.7799989	1.0	0.7799989	226	28	0
0.7821989	0.9978	0.7799989	226	28	2
0.7843989	0.9956	0.7799989	226	28	5
0.7865989	0.9934	0.7799989	226	28	7
0.7887989	0.9911999	0.77999884	226	28	10
0.79099894	0.9889999	0.77999884	226	28	12
0.79319894	0.98679996	0.7799989	226	28	15
0.79539895	0.98459995	0.7799989	226	28	17
0.79759896	0.98239994	0.7799989	226	28	20
0.79979897	0.98019993	0.7799989	226	28	22
0.801999	0.9779999	0.7799989	226	28	25
0.804199	0.97579986	0.7799989	226	28	28
0.80639905	0.97359985	0.7799989	226	28	30
0.80859905	0.97139984	0.7799989	226	28	33
0.81079906	0.96919984	0.7799989	226	28	35
0.81299907	0.9669998	0.7799989	226	28	38
0.81519914	0.9647999	0.7799989	226	28	40
0.8173991	0.9625998	0.7799989	226	28	43
0.8195991	0.9603998	0.7799989	226	28	45
0.8217991	0.9581998	0.7799989	226	28	48
0.82399905	0.95599973	0.77999884	226	28	51
0.8261991	0.9537997	0.7799989	226	28	53
0.8283991	0.9515997	0.7799989	226	28	56
0.8305991	0.94939977	0.7799989	226	28	58
0.8327992	0.94719976	0.7799989	226	28	61
0.8349992	0.94499975	0.77999896	226	28	63
0.8371992	0.94279975	0.77999896	226	28	66
0.8393992	0.94059974	0.77999896	226	28	68
0.8415992	0.93839973	0.77999896	226	28	71
0.84379923	0.9361997	0.77999896	226	28	73
0.84599924	0.9339997	0.77999896	226	28	76
0.84819925	0.9317997	0.77999896	226	28	79
0.85039926	0.9295997	0.77999896	226	28	81
0.85259926	0.92739964	0.7799989	226	28	84
0.8547993	0.9251996	0.7799989	226	28	86
0.8569993	0.9229996	0.7799989	226	28	89
0.8591993	0.9207996	0.7799989	226	28	91
0.8613993	0.9185996	0.7799989	226	28	94
0.8635993	0.9163996	0.7799989	226	28	96
0.8657993	0.9141996	0.7799989	226	28	99
0.8679993	0.9119996	0.7799989	226	28	101
0.8701993	0.9097996	0.7799989	226	28	104
0.87239933	0.90759957	0.7799989	226	28	107
0.87459934	0.90539956	0.7799989	226	28	109
0.87679935	0.90319955	0.7799989	226	28	112
0.87899935	0.90099955	0.7799989	226	28	114
0.88119936	0.89879954	0.7799989	226	28	117
0.88339937	0.89659953	0.7799989	226	28	119
0.8855994	0.8943995	0.7799989	226	28	122
0.8877994	0.8921995	0.7799989	226	28	124
0.8899994	0.8899995	0.7799989	226	28	127
0.8921994	0.8877995	0.7799989	226	28	130
0.8943994	0.8855995	0.7799989	226	28	132
0.8965994	0.8833995	0.7799989	226	28	135
0.8987994	0.8811995	0.7799989	226	28	137
0.9009994	0.8789995	0.7799989	226	28	140
0.90319943	0.87679946	0.7799989	226	28	142
0.90539944	0.87459946	0.7799989	226	28	145
0.90759945	0.87239945	0.7799989	226	28	147
0.90979946	0.87019944	0.7799989	226	28	150
0.91199946	0.86799943	0.7799989	226	28	152
0.9141995	0.8657994	0.7799989	226	28	155
0.9163995	0.8635994	0.7799989	226	28	158
0.9185995	0.8613994	0.7799989	226	28	160
0.9207995	0.8591994	0.7799989	226	28	163
0.9229995	0.85699934	0.7799989	226	28	165
0.9251995	0.85479933	0.7799989	226	28	168
0.9273996	0.8525993	0.7799989	226	28	170
0.9295996	0.8503993	0.7799989	226	28	173
0.9317996	0.8481993	0.7799989	226	28	175
0.9339996	0.8459993	0.7799989	226	28	178
0.9361996	0.8437993	0.7799989	226	28	181
0.9383996	0.8415993	0.7799989	226	28	183
0.9405996	0.8393993	0.7799989	226	28	186
0.9427996	0.8371993	0.7799989	226	28	188
0.94499964	0.83499926	0.7799989	226	28	191
0.94719964	0.83279926	0.7799989	226	28	193
0.94939965	0.83059925	0.7799989	226	28	196
0.95159966	0.82839924	0.7799989	226	28	198
0.95379966	0.82619923	0.7799989	226	28	201
0.9559997	0.8239992	0.7799989	226	28	203
0.9581997	0.8217992	0.7799989	226	28	206
0.9603997	0.8195992	0.7799989	226	28	209
0.9625997	0.8173992	0.7799989	226	28	211
0.9647997	0.8151992	0.7799989	226	28	214
0.9669997	0.8129992	0.7799989	226	28	216
0.9691997	0.8107992	0.7799989	226	28	219
0.9713997	0.8085992	0.7799989	226	28	221
0.97359973	0.80639917	0.7799989	226	28	224
0.97579974	0.80419916	0.7799989	226	28	226
0.97799975	0.80199915	0.7799989	226	28	229
0.98019975	0.79979914	0.7799989	226	28	232
0.98239976	0.79759914	0.7799989	226	28	234
0.98459977	0.7953991	0.7799989	226	28	237
0.9867998	0.7931991	0.7799989	226	28	239
0.9889998	0.7909991	0.7799989	226	28	242
0.9911998	0.7887991	0.7799989	226	28	244
0.99339986	0.78659904	0.7799989	226	28	247
0.99559987	0.78439903	0.7799989	226	28	249
0.9977999	0.782199	0.7799989	226	28	252
0.9999999	0.779999	0.7799989	226	28	254
1.0	0.7799989	0.7799989	255	0	0
0.7799989	1.0	0.7799989	0	0	255
0.7999989	1.0	0.7999989	229	25	0
0.8019989	0.998	0.79999894	229	25	2
0.8039989	0.996	0.7999989	229	25	5
0.8059989	0.994	0.79999894	229	25	7
0.80799896	0.9919999	0.7999989	229	25	10
0.8099989	0.98999995	0.7999989	229	25	12
0.81199896	0.9879999	0.7999989	229	25	15
0.81399894	0.98599994	0.7999989	229	25	17
0.815999	0.9839999	0.7999989	229	25	20
0.81799895	0.98199993	0.7999989	229	25	22
0.819999	0.9799999	0.7999989	229	25	25
0.82199895	0.97799987	0.7999989	229	25	28
0.823999	0.97599983	0.7999988	229	25	30
0.825999	0.97399986	0.7999989	229	25	33
0.82799906	0.9719998	0.7999989	229	25	35
0.829999	0.96999985	0.7999989	229	25	38
0.83199906	0.9679998	0.7999989	229	25	40
0.8339991	0.9659998	0.7999989	229	25	43
0.8359991	0.9639998	0.7999989	229	25	45
0.8379991	0.9619998	0.7999989	229	25	48
0.8399991	0.95999974	0.7999989	229	25	51
0.8419991	0.95799977	0.7999989	229	25	53
0.84399915	0.95599973	0.7999989	229	25	56
0.8459991	0.95399976	0.7999989	229	25	58
0.8479992	0.9519998	0.7999989	229	25	61
0.8499992	0.94999975	0.79999894	229	25	63
0.85199916	0.9479997	0.7999989	229	25	66
0.85399926	0.94599974	0.79999894	229	25	68
0.85599923	0.9439997	0.7999989	229	25	71
0.8579992	0.9419997	0.7999989	229	25	73
0.8599992	0.9399997	0.7999989	229	25	76
0.8619993	0.93799967	0.7999989	229	25	79
0.86399925	0.9359997	0.79999894	229	25	81
0.8659992	0.93399966	0.7999989	229	25	84
0.8679993	0.9319997	0.7999989	229	25	86
0.8699993	0.92999965	0.7999989	229	25	89
0.87199926	0.9279996	0.7999989	229	25	91
0.87399936	0.92599964	0.79999894	229	25	94
0.87599933	0.92399967	0.7999989	229	25	96
0.8779993	0.9219996	0.7999989	229	25	99
0.87999934	0.9199996	0.7999989	229	25	101
0.8819994	0.9179996	0.7999989	229	25	104
0.88399935	0.9159996	0.7999989	229	25	107
0.8859993	0.91399956	0.7999989	229	25	109
0.88799936	0.9119996	0.7999989	229	25	112
0.8899994	0.90999955	0.7999989	229	25	114
0.89199936	0.9079995	0.7999989	229	25	117
0.8939994	0.90599954	0.7999989	229	25	119
0.89599943	0.90399957	0.7999989	229	25	122
0.8979994	0.90199953	0.7999989	229	25	124
0.8999994	0.8999995	0.7999989	229	25	127
0.9019994	0.89799947	0.7999989	229	25	130
0.90399945	0.89599943	0.7999989	229	25	132
0.9059994	0.89399946	0.7999989	229	25	135
0.90799946	0.8919994	0.7999989	229	25	137
0.9099995	0.8899994	0.7999989	229	25	140
0.91199946	0.8879994	0.7999989	229	25	142
0.91399944	0.88599944	0.7999989	229	25	145
0.9159995	0.8839994	0.7999989	229	25	147
0.9179995	0.8819994	0.7999989	229	25	150
0.9199995	0.8799994	0.7999989	229	25	152
0.9219995	0.87799937	0.7999989	229	25	155
0.92399955	0.87599933	0.7999989	229	25	158
0.9259995	0.87399936	0.7999989	229	25	160
0.9279995	0.8719993	0.7999989	229	25	163
0.92999953	0.86999935	0.7999989	229	25	165
0.93199956	0.8679993	0.7999989	229	25	168
0.93399954	0.86599934	0.7999989	229	25	170
0.9359996	0.8639993	0.7999989	229	25	173
0.9379996	0.8619993	0.7999989	229	25	175
0.9399996	0.8599993	0.7999989	229	25	178
0.9419996	0.85799927	0.7999989	229	25	181
0.9439996	0.8559993	0.7999989	229	25	183
0.9459996	0.85399926	0.7999989	229	25	186
0.9479996	0.8519992	0.7999989	229	25	188
0.94999963	0.84999925	0.7999989	229	25	191
0.95199966	0.8479992	0.7999989	229	25	193
0.95399964	0.84599924	0.7999989	229	25	196
0.9559997	0.8439992	0.7999989	229	25	198
0.9579997	0.84199923	0.7999989	229	25	201
0.9599997	0.8399992	0.7999989	229	25	203
0.9619997	0.83799917	0.7999989	229	25	206
0.9639997	0.8359992	0.7999989	229	25	209
0.9659997	0.83399916	0.7999989	229	25	211
0.9679997	0.8319992	0.7999989	229	25	214
0.96999973	0.82999915	0.7999989	229	25	216
0.97199976	0.8279991	0.7999989	229	25	219
0.97399974	0.82599914	0.7999989	229	25	221
0.9759998	0.8239991	0.7999989	229	25	224
0.97799975	0.82199913	0.7999989	229	25	226
0.9799998	0.8199991	0.7999989	229	25	229
0.98199975	0.81799906	0.7999989	229	25	232
0.9839998	0.8159991	0.7999989	229	25	234
0.9859998	0.81399906	0.7999989	229	25	237
0.9879998	0.8119991	0.7999989	229	25	239
0.98999983	0.80999905	0.7999989	229	25	242
0.9919998	0.8079991	0.7999989	229	25	244
0.99399984	0.80599904	0.7999989	229	25	247
0.9959999	0.803999	0.7999989	229	25	249
0.99799985	0.80199903	0.7999989	229	25	252
0.9999999	0.799999	0.7999989	229	25	254
1.0	0.7999989	0.7999989	255	0	0
0.7999989	1.0	0.7999989	0	0	255
0.81999886	1.0	0.81999886	232	22	0
0.82179886	0.9982	0.81999886	232	22	2
0.82359886	0.9964	0.81999886	232	22	5
0.82539886	0.9946	0.81999886	232	22	7
0.8271989	0.99279994	0.81999886	232	22	10
0.8289989	0.99099994	0.81999886	232	22	12
0.8307989	0.98919994	0.81999886	232	22	15
0.8325989	0.98739994	0.81999886	232	22	17
0.8343989	0.98559994	0.81999886	232	22	20
0.836199	0.98379993	0.8199989	232	22	22
0.837999	0.98199993	0.8199989	232	22	25
0.8397989	0.9801999	0.81999886	232	22	28
0.841599	0.9783999	0.81999886	232	22	30
0.843399	0.9765998	0.81999886	232	22	33
0.845199	0.9747999	0.81999886	232	22	35
0.84699905	0.9729999	0.8199989	232	22	38
0.8487991	0.97119987	0.8199989	232	22	40
0.85059905	0.9693998	0.81999886	232	22	43
0.85239905	0.9675998	0.81999886	232	22	45
0.85419905	0.9657998	0.81999886	232	22	48
0.8559991	0.96399975	0.81999886	232	22	51
0.8577991	0.96219975	0.81999886	232	22	53
0.8595991	0.96039975	0.81999886	232	22	56
0.8613991	0.95859975	0.81999886	232	22	58
0.8631991	0.95679975	0.81999886	232	22	61
0.8649992	0.95499974	0.8199989	232	22	63
0.86679924	0.95319974	0.8199989	232	22	66
0.8685992	0.9513997	0.81999886	232	22	68
0.87039924	0.94959974	0.81999886	232	22	71
0.8721992	0.9477997	0.81999886	232	22	73
0.87399924	0.9459997	0.81999886	232	22	76
0.8757992	0.9441997	0.81999886	232	22	79
0.87759924	0.9423997	0.8199989	232	22	81
0.8793993	0.9405997	0.81999886	232	22	84
0.88119924	0.9387996	0.81999886	232	22	86
0.8829993	0.9369997	0.81999886	232	22	89
0.88479924	0.9351996	0.81999886	232	22	91
0.8865993	0.9333996	0.81999886	232	22	94
0.88839924	0.9315996	0.81999886	232	22	96
0.8901993	0.9297996	0.8199989	232	22	99
0.89199936	0.9279996	0.81999886	232	22	101
0.8937993	0.92619956	0.81999886	232	22	104
0.89559937	0.9243996	0.81999886	232	22	107
0.8973993	0.92259955	0.81999886	232	22	109
0.89919937	0.92079955	0.81999886	232	22	112
0.90099937	0.91899955	0.81999886	232	22	114
0.90279937	0.9171995	0.81999886	232	22	117
0.9045994	0.91539955	0.81999886	232	22	119
0.90639937	0.9135995	0.81999886	232	22	122
0.9081994	0.91179955	0.81999886	232	22	124
0.90999943	0.9099995	0.81999886	232	22	127
0.91179943	0.9081994	0.81999886	232	22	130
0.91359943	0.9063994	0.81999886	232	22	132
0.91539943	0.9045994	0.81999886	232	22	135
0.91719943	0.9027994	0.81999886	232	22	137
0.91899943	0.9009994	0.81999886	232	22	140
0.9207995	0.89919937	0.81999886	232	22	142
0.92259943	0.8973994	0.81999886	232	22	145
0.9243995	0.89559937	0.81999886	232	22	147
0.9261995	0.89379936	0.81999886	232	22	150
0.9279995	0.89199936	0.81999886	232	22	152
0.9297995	0.89019936	0.81999886	232	22	155
0.9315995	0.88839936	0.81999886	232	22	158
0.93339956	0.88659936	0.81999886	232	22	160
0.9351995	0.8847993	0.81999886	232	22	163
0.93699956	0.8829993	0.81999886	232	22	165
0.93879956	0.8811993	0.81999886	232	22	168
0.94059956	0.8793993	0.81999886	232	22	170
0.94239956	0.8775993	0.81999886	232	22	173
0.94419956	0.8757993	0.81999886	232	22	175
0.9459996	0.8739993	0.81999886	232	22	178
0.9477996	0.87219924	0.81999886	232	22	181
0.9495996	0.87039924	0.81999886	232	22	183
0.9513996	0.86859924	0.81999886	232	22	186
0.9531996	0.86679924	0.81999886	232	22	188
0.9549996	0.86499923	0.81999886	232	22	191
0.9567996	0.86319923	0.81999886	232	22	193
0.9585997	0.8613992	0.81999886	232	22	196
0.9603997	0.8595992	0.81999886	232	22	198
0.9621997	0.8577992	0.81999886	232	22	201
0.9639997	0.8559992	0.81999886	232	22	203
0.9657997	0.8541992	0.81999886	232	22	206
0.9675997	0.8523992	0.81999886	232	22	209
0.9693997	0.85059917	0.81999886	232	22	211
0.97119975	0.8487991	0.81999886	232	22	214
0.97299975	0.8469991	0.81999886	232	22	216
0.97479975	0.8451991	0.81999886	232	22	219
0.97659975	0.8433991	0.81999886	232	22	221
0.97839975	0.8415991	0.81999886	232	22	224
0.98019975	0.8397991	0.81999886	232	22	226
0.98199975	0.83799905	0.81999886	232	22	229
0.9837998	0.83619905	0.81999886	232	22	232
0.9855998	0.83439904	0.81999886	232	22	234
0.9873998	0.83259904	0.81999886	232	22	237
0.9891998	0.83079904	0.81999886	232	22	239
0.9909998	0.82899904	0.81999886	232	22	242
0.9927998	0.82719904	0.81999886	232	22	244
0.9945999	0.825399	0.81999886	232	22	247
0.9963999	0.823599	0.81999886	232	22	249
0.9981999	0.821799	0.81999886	232	22	252
0.9999999	0.819999	0.81999886	232	22	254
1.0	0.81999886	0.81999886	255	0	0
0.81999886	1.0	0.81999886	0	0	255
0.83999884	1.0	0.83999884	234	20	0
0.84159887	0.9984	0.83999884	234	20	2
0.84319884	0.9968	0.83999884	234	20	5
0.84479886	0.9952	0.83999884	234	20	7
0.8463989	0.99359995	0.83999884	234	20	10
0.8479989	0.9919999	0.83999884	234	20	12
0.8495989	0.9903999	0.8399988	234	20	15
0.8511989	0.9887999	0.83999884	234	20	17
0.85279894	0.9871999	0.83999884	234	20	20
0.85439897	0.98559994	0.8399989	234	20	22
0.85599893	0.9839999	0.83999884	234	20	25
0.8575989	0.9823998	0.8399988	234	20	28
0.859199	0.98079985	0.83999884	234	20	30
0.860799	0.9791998	0.83999884	234	20	33
0.862399	0.97759986	0.83999884	234	20	35
0.863999	0.97599983	0.83999884	234	20	38
0.86559904	0.97439986	0.8399989	234	20	40
0.86719906	0.9727998	0.83999884	234	20	43
0.86879903	0.9711998	0.83999884	234	20	45
0.87039906	0.9695998	0.83999884	234	20	48
0.871999	0.96799976	0.83999884	234	20	51
0.8735991	0.9663997	0.83999884	234	20	53
0.8751991	0.96479976	0.83999884	234	20	56
0.8767991	0.96319973	0.83999884	234	20	58
0.87839913	0.96159977	0.8399989	234	20	61
0.87999916	0.95999974	0.8399989	234	20	63
0.8815992	0.9583997	0.83999884	234	20	66
0.8831992	0.95679975	0.83999884	234	20	68
0.88479924	0.9551997	0.8399989	234	20	71
0.88639915	0.9535997	0.83999884	234	20	73
0.8879992	0.95199966	0.83999884	234	20	76
0.8895992	0.95039964	0.83999884	234	20	79
0.89119923	0.94879967	0.8399989	234	20	81
0.89279926	0.94719964	0.83999884	234	20	84
0.8943993	0.9455997	0.83999884	234	20	86
0.8959993	0.94399965	0.8399989	234	20	89
0.8975992	0.9423996	0.83999884	234	20	91
0.89919925	0.9407996	0.83999884	234	20	94
0.9007993	0.93919957	0.83999884	234	20	96
0.9023993	0.9375996	0.8399989	234	20	99
0.9039993	0.9359996	0.83999884	234	20	101
0.90559936	0.9343996	0.83999884	234	20	104
0.9071993	0.9327996	0.83999884	234	20	107
0.90879935	0.93119955	0.83999884	234	20	109
0.9103993	0.9295995	0.83999884	234	20	112
0.91199934	0.9279995	0.83999884	234	20	114
0.9135994	0.9263995	0.83999884	234	20	117
0.9151994	0.9247995	0.83999884	234	20	119
0.9167994	0.92319953	0.83999884	234	20	122
0.9183994	0.9215995	0.83999884	234	20	124
0.9199994	0.9199995	0.83999884	234	20	127
0.9215994	0.91839945	0.83999884	234	20	130
0.9231994	0.9167994	0.83999884	234	20	132
0.92479944	0.9151994	0.83999884	234	20	135
0.92639947	0.9135994	0.83999884	234	20	137
0.92799944	0.9119994	0.83999884	234	20	140
0.92959946	0.9103994	0.83999884	234	20	142
0.93119943	0.9087994	0.83999884	234	20	145
0.93279946	0.9071994	0.83999884	234	20	147
0.9343995	0.90559936	0.83999884	234	20	150
0.9359995	0.9039993	0.83999884	234	20	152
0.93759954	0.90239936	0.83999884	234	20	155
0.9391995	0.90079933	0.83999884	234	20	158
0.94079953	0.8991993	0.83999884	234	20	160
0.9423995	0.8975993	0.83999884	234	20	163
0.9439995	0.8959993	0.83999884	234	20	165
0.94559956	0.8943993	0.83999884	234	20	168
0.9471996	0.89279926	0.83999884	234	20	170
0.9487996	0.8911993	0.83999884	234	20	173
0.9503996	0.88959926	0.83999884	234	20	175
0.9519996	0.88799924	0.83999884	234	20	178
0.9535996	0.8863992	0.83999884	234	20	181
0.9551996	0.88479924	0.83999884	234	20	183
0.9567996	0.8831992	0.83999884	234	20	186
0.95839965	0.8815992	0.83999884	234	20	188
0.9599997	0.8799992	0.83999884	234	20	191
0.96159965	0.8783992	0.83999884	234	20	193
0.9631997	0.87679917	0.83999884	234	20	196
0.96479964	0.87519914	0.83999884	234	20	198
0.96639967	0.8735992	0.83999884	234	20	201
0.9679997	0.87199914	0.83999884	234	20	203
0.9695997	0.8703991	0.83999884	234	20	206
0.97119975	0.86879915	0.83999884	234	20	209
0.9727997	0.8671991	0.83999884	234	20	211
0.97439975	0.8655991	0.83999884	234	20	214
0.9759997	0.86399907	0.83999884	234	20	216
0.97759974	0.8623991	0.83999884	234	20	219
0.97919977	0.8607991	0.83999884	234	20	221
0.9807998	0.85919905	0.83999884	234	20	224
0.98239976	0.8575991	0.83999884	234	20	226
0.9839998	0.85599905	0.83999884	234	20	229
0.9855998	0.854399	0.83999884	234	20	232
0.9871998	0.852799	0.83999884	234	20	234
0.9887998	0.85119903	0.83999884	234	20	237
0.99039984	0.849599	0.83999884	234	20	239
0.99199986	0.847999	0.83999884	234	20	242
0.99359983	0.846399	0.83999884	234	20	244
0.99519986	0.844799	0.83999884	234	20	247
0.9967999	0.84319896	0.83999884	234	20	249
0.9983999	0.8415989	0.83999884	234	20	252
0.9999999	0.83999896	0.83999884	234	20	254
1.0	0.83999884	0.83999884	255	0	0
0.83999884	1.0	0.83999884	0	0	255
0.8599988	1.0	0.8599988	237	17	0
0.8613988	0.9986	0.8599988	237	17	2
0.86279887	0.9972	0.8599989	237	17	5
0.86419886	0.9958	0.8599989	237	17	7
0.86559886	0.9943999	0.85999876	237	17	10
0.8669989	0.9929999	0.8599988	237	17	12
0.8683989	0.9915999	0.8599988	237	17	15
0.8697989	0.9901999	0.8599988	237	17	17
0.8711989	0.9887999	0.8599988	237	17	20
0.87259895	0.98739994	0.8599989	237	17	22
0.87399894	0.9859999	0.8599988	237	17	25
0.8753989	0.9845998	0.85999876	237	17	28
0.876799	0.98319983	0.8599988	237	17	30
0.878199	0.98179984	0.8599988	237	17	33
0.879599	0.98039985	0.8599988	237	17	35
0.88099897	0.97899985	0.8599988	237	17	38
0.8823991	0.97759986	0.8599989	237	17	40
0.883799	0.9761998	0.8599988	237	17	43
0.885199	0.97479975	0.8599988	237	17	45
0.88659906	0.97339976	0.8599988	237	17	48
0.88799906	0.97199976	0.8599988	237	17	51
0.88939905	0.9705998	0.8599988	237	17	53
0.8907991	0.9691997	0.8599988	237	17	56
0.8921991	0.9677997	0.8599988	237	17	58
0.89359915	0.9663997	0.8599988	237	17	61
0.89499915	0.96499974	0.8599989	237	17	63
0.89639914	0.96359974	0.8599989	237	17	66
0.89779913	0.9621997	0.8599988	237	17	68
0.8991991	0.9607997	0.8599988	237	17	71
0.90059924	0.9593997	0.8599989	237	17	73
0.90199924	0.9579997	0.8599988	237	17	76
0.9033992	0.9565997	0.8599988	237	17	79
0.9047992	0.95519966	0.8599988	237	17	81
0.9061992	0.9537996	0.8599988	237	17	84
0.9075992	0.9523996	0.8599988	237	17	86
0.9089992	0.9509996	0.8599988	237	17	89
0.9103993	0.9495996	0.8599989	237	17	91
0.9117993	0.9481996	0.8599988	237	17	94
0.9131993	0.94679964	0.8599988	237	17	96
0.9145993	0.9453996	0.8599988	237	17	99
0.9159993	0.9439996	0.8599989	237	17	101
0.9173993	0.94259953	0.8599988	237	17	104
0.9187993	0.94119954	0.8599988	237	17	107
0.92019933	0.93979955	0.8599988	237	17	109
0.9215994	0.93839955	0.8599988	237	17	112
0.9229994	0.93699956	0.8599988	237	17	114
0.9243994	0.9355995	0.8599988	237	17	117
0.92579937	0.9341995	0.8599988	237	17	119
0.92719936	0.93279946	0.8599988	237	17	122
0.92859936	0.93139946	0.8599988	237	17	124
0.9299994	0.9299995	0.8599988	237	17	127
0.9313994	0.9285994	0.8599988	237	17	130
0.9327994	0.9271994	0.8599988	237	17	132
0.93419945	0.92579937	0.8599988	237	17	135
0.93559945	0.9243994	0.8599988	237	17	137
0.93699944	0.9229994	0.8599988	237	17	140
0.93839943	0.9215994	0.8599988	237	17	142
0.9397994	0.9201994	0.8599988	237	17	145
0.9411995	0.91879934	0.8599988	237	17	147
0.9425995	0.91739935	0.8599988	237	17	150
0.9439995	0.91599935	0.8599988	237	17	152
0.9453995	0.9145993	0.8599988	237	17	155
0.9467995	0.9131993	0.8599988	237	17	158
0.9481995	0.9117993	0.8599988	237	17	160
0.9495995	0.9103993	0.8599988	237	17	163
0.9509995	0.90899926	0.8599988	237	17	165
0.95239955	0.9075993	0.8599988	237	17	168
0.9537996	0.9061993	0.8599988	237	17	170
0.9551996	0.9047992	0.8599988	237	17	173
0.9565996	0.9033992	0.8599988	237	17	175
0.9579996	0.90199924	0.8599988	237	17	178
0.9593996	0.90059924	0.8599988	237	17	181
0.96079963	0.8991992	0.8599988	237	17	183
0.9621996	0.8977992	0.8599988	237	17	186
0.9635996	0.8963992	0.8599988	237	17	188
0.9649997	0.89499915	0.8599988	237	17	191
0.96639967	0.89359915	0.8599988	237	17	193
0.96779966	0.89219916	0.8599988	237	17	196
0.96919966	0.89079916	0.8599988	237	17	198
0.9705997	0.8893991	0.8599988	237	17	201
0.9719997	0.8879991	0.8599988	237	17	203
0.9733997	0.8865991	0.8599988	237	17	206
0.97479975	0.8851991	0.8599988	237	17	209
0.97619975	0.8837991	0.8599988	237	17	211
0.97759974	0.8823991	0.8599988	237	17	214
0.97899973	0.8809991	0.8599988	237	17	216
0.9803998	0.87959903	0.8599988	237	17	219
0.9817998	0.87819904	0.8599988	237	17	221
0.9831998	0.87679905	0.8599988	237	17	224
0.98459977	0.87539905	0.8599988	237	17	226
0.9859998	0.873999	0.8599988	237	17	229
0.9873998	0.872599	0.8599988	237	17	232
0.9887998	0.871199	0.8599988	237	17	234
0.9901998	0.86979896	0.8599988	237	17	237
0.99159986	0.86839896	0.8599988	237	17	239
0.99299985	0.866999	0.8599988	237	17	242
0.99439985	0.865599	0.8599988	237	17	244
0.9957999	0.8641989	0.8599988	237	17	247
0.9971999	0.8627989	0.8599988	237	17	249
0.9985999	0.86139894	0.8599988	237	17	252
0.9999999	0.85999894	0.8599988	237	17	254
1.0	0.8599988	0.8599988	255	0	0
0.8599988	1.0	0.8599988	0	0	255
0.8799988	1.0	0.8799988	239	15	0
0.8811988	0.9988	0.8799988	239	15	2
0.88239884	0.9976	0.87999886	239	15	5
0.88359886	0.9964	0.87999886	239	15	7
0.8847988	0.9951999	0.87999874	239	15	10
0.88599885	0.9939999	0.87999874	239	15	12
0.88719887	0.99279994	0.8799988	239	15	15
0.8883989	0.9915999	0.8799988	239	15	17
0.8895989	0.9903999	0.8799988	239	15	20
0.8907989	0.9891999	0.8799988	239	15	22
0.89199895	0.9879999	0.87999886	239	15	25
0.89319885	0.98679984	0.87999874	239	15	28
0.8943989	0.9855998	0.87999874	239	15	30
0.89559895	0.98439986	0.8799988	239	15	33
0.89679897	0.98319983	0.8799988	239	15	35
0.897999	0.9819998	0.8799988	239	15	38
0.899199	0.98079985	0.87999886	239	15	40
0.900399	0.9795998	0.8799988	239	15	43
0.901599	0.97839975	0.8799988	239	15	45
0.902799	0.9771998	0.8799988	239	15	48
0.903999	0.9759997	0.87999874	239	15	51
0.90519905	0.97479975	0.8799988	239	15	53
0.9063991	0.97359973	0.8799988	239	15	56
0.9075991	0.9723997	0.8799988	239	15	58
0.9087992	0.97119975	0.87999886	239	15	61
0.90999913	0.96999973	0.87999886	239	15	63
0.9111991	0.9687997	0.8799988	239	15	66
0.9123992	0.9675997	0.8799988	239	15	68
0.91359913	0.96639967	0.8799988	239	15	71
0.9147992	0.9651997	0.8799988	239	15	73
0.9159992	0.9639996	0.8799988	239	15	76
0.91719925	0.96279967	0.87999886	239	15	79
0.9183992	0.96159965	0.8799988	239	15	81
0.9195992	0.9603996	0.8799988	239	15	84
0.92079926	0.95919967	0.8799988	239	15	86
0.9219992	0.9579996	0.8799988	239	15	89
0.9231993	0.9567996	0.8799988	239	15	91
0.92439926	0.9555996	0.87999886	239	15	94
0.9255992	0.9543996	0.8799988	239	15	96
0.9267993	0.95319957	0.8799988	239	15	99
0.92799926	0.95199955	0.8799988	239	15	101
0.92919934	0.9507996	0.8799988	239	15	104
0.9303993	0.9495995	0.8799988	239	15	107
0.9315994	0.94839954	0.87999886	239	15	109
0.93279934	0.9471995	0.8799988	239	15	112
0.93399936	0.9459995	0.8799988	239	15	114
0.9351994	0.94479954	0.8799988	239	15	117
0.93639934	0.94359946	0.8799988	239	15	119
0.9375994	0.9423995	0.8799988	239	15	122
0.9387994	0.9411995	0.8799988	239	15	124
0.9399994	0.93999946	0.8799988	239	15	127
0.9411994	0.9387994	0.8799988	239	15	130
0.9423994	0.9375994	0.8799988	239	15	132
0.9435994	0.9363994	0.8799988	239	15	135
0.9447994	0.9351994	0.8799988	239	15	137
0.94599944	0.93399936	0.8799988	239	15	140
0.94719946	0.93279934	0.8799988	239	15	142
0.9483994	0.9315993	0.8799988	239	15	145
0.9495995	0.93039936	0.8799988	239	15	147
0.95079947	0.92919934	0.8799988	239	15	150
0.9519995	0.9279993	0.8799988	239	15	152
0.9531995	0.9267993	0.8799988	239	15	155
0.95439947	0.9255993	0.8799988	239	15	158
0.95559955	0.92439926	0.8799988	239	15	160
0.9567995	0.9231993	0.8799988	239	15	163
0.9579996	0.9219993	0.8799988	239	15	165
0.95919955	0.92079926	0.8799988	239	15	168
0.96039957	0.91959924	0.8799988	239	15	170
0.9615996	0.9183992	0.8799988	239	15	173
0.96279955	0.9171992	0.8799988	239	15	175
0.9639996	0.91599923	0.8799988	239	15	178
0.9651996	0.9147992	0.8799988	239	15	181
0.9663996	0.9135992	0.8799988	239	15	183
0.96759963	0.9123992	0.8799988	239	15	186
0.96879965	0.91119915	0.8799988	239	15	188
0.9699997	0.90999913	0.8799988	239	15	191
0.97119963	0.9087991	0.8799988	239	15	193
0.97239965	0.90759915	0.8799988	239	15	196
0.9735997	0.90639913	0.8799988	239	15	198
0.9747997	0.9051991	0.8799988	239	15	201
0.9759997	0.9039991	0.8799988	239	15	203
0.97719973	0.90279907	0.8799988	239	15	206
0.97839975	0.90159905	0.8799988	239	15	209
0.9795997	0.9003991	0.8799988	239	15	211
0.98079973	0.89919907	0.8799988	239	15	214
0.98199975	0.89799905	0.8799988	239	15	216
0.9831998	0.896799	0.8799988	239	15	219
0.9843998	0.895599	0.8799988	239	15	221
0.9855998	0.894399	0.8799988	239	15	224
0.9867998	0.893199	0.8799988	239	15	226
0.9879998	0.891999	0.8799988	239	15	229
0.9891998	0.890799	0.8799988	239	15	232
0.99039984	0.88959897	0.8799988	239	15	234
0.99159986	0.88839895	0.8799988	239	15	237
0.9927999	0.8871989	0.8799988	239	15	239
0.99399984	0.88599896	0.8799988	239	15	242
0.99519986	0.88479894	0.8799988	239	15	244
0.9963999	0.8835989	0.8799988	239	15	247
0.9975999	0.8823989	0.8799988	239	15	249
0.9987999	0.8811989	0.8799988	239	15	252
0.99999994	0.87999886	0.8799988	239	15	254
1.0	0.8799988	0.8799988	255	0	0
0.8799988	1.0	0.8799988	0	0	255
0.8999988	1.0	0.8999988	242	12	0
0.9009988	0.999	0.8999988	242	12	2
0.9019988	0.99799997	0.8999988	242	12	5
0.9029988	0.997	0.8999988	242	12	7
0.90399885	0.99599993	0.8999988	242	12	10
0.90499884	0.99499995	0.8999988	242	12	12
0.9059989	0.9939999	0.8999988	242	12	15
0.9069989	0.9929999	0.8999988	242	12	17
0.90799886	0.9919999	0.8999988	242	12	20
0.9089989	0.99099994	0.8999988	242	12	22
0.9099989	0.9899999	0.8999988	242	12	25
0.91099894	0.98899984	0.8999988	242	12	28
0.9119989	0.98799986	0.8999988	242	12	30
0.9129989	0.9869998	0.8999987	242	12	33
0.91399896	0.9859998	0.8999988	242	12	35
0.91499895	0.98499984	0.8999988	242	12	38
0.91599905	0.98399985	0.89999884	242	12	40
0.916999	0.9829998	0.8999988	242	12	43
0.917999	0.98199975	0.8999988	242	12	45
0.918999	0.98099977	0.8999988	242	12	48
0.919999	0.9799997	0.8999987	242	12	51
0.92099905	0.97899973	0.8999988	242	12	53
0.92199904	0.97799975	0.8999988	242	12	56
0.9229991	0.97699976	0.8999988	242	12	58
0.9239991	0.9759997	0.8999988	242	12	61
0.9249991	0.9749997	0.89999884	242	12	63
0.92599916	0.97399974	0.8999988	242	12	66
0.9269991	0.9729997	0.8999988	242	12	68
0.92799914	0.97199965	0.8999988	242	12	71
0.9289992	0.9709997	0.8999988	242	12	73
0.92999923	0.9699997	0.89999884	242	12	76
0.93099916	0.9689996	0.8999988	242	12	79
0.9319992	0.96799964	0.8999988	242	12	81
0.93299925	0.96699965	0.8999988	242	12	84
0.9339992	0.9659996	0.8999988	242	12	86
0.9349992	0.9649996	0.89999884	242	12	89
0.9359993	0.9639996	0.8999988	242	12	91
0.9369992	0.9629996	0.8999988	242	12	94
0.93799925	0.96199954	0.8999988	242	12	96
0.9389993	0.9609996	0.8999988	242	12	99
0.93999934	0.95999956	0.89999884	242	12	101
0.94099927	0.9589995	0.8999988	242	12	104
0.9419993	0.9579995	0.8999988	242	12	107
0.94299936	0.95699954	0.8999988	242	12	109
0.9439993	0.9559995	0.8999988	242	12	112
0.94499934	0.9549995	0.8999988	242	12	114
0.9459994	0.9539995	0.8999988	242	12	117
0.9469994	0.9529995	0.8999988	242	12	119
0.94799936	0.9519994	0.8999988	242	12	122
0.9489994	0.9509995	0.8999988	242	12	124
0.9499994	0.94999945	0.8999988	242	12	127
0.9509994	0.9489994	0.8999988	242	12	130
0.9519994	0.94799936	0.8999988	242	12	132
0.9529994	0.9469994	0.8999988	242	12	135
0.9539994	0.9459994	0.8999988	242	12	137
0.95499945	0.94499934	0.8999988	242	12	140
0.95599943	0.94399935	0.8999988	242	12	142
0.9569994	0.9429993	0.8999988	242	12	145
0.95799947	0.9419993	0.8999988	242	12	147
0.9589995	0.9409993	0.8999988	242	12	150
0.95999944	0.9399993	0.8999988	242	12	152
0.9609995	0.9389993	0.8999988	242	12	155
0.96199954	0.93799925	0.8999988	242	12	158
0.9629995	0.93699926	0.8999988	242	12	160
0.9639995	0.9359993	0.8999988	242	12	163
0.96499956	0.9349992	0.8999988	242	12	165
0.96599954	0.93399924	0.8999988	242	12	168
0.96699953	0.9329992	0.8999988	242	12	170
0.9679996	0.9319992	0.8999988	242	12	173
0.9689996	0.9309992	0.8999988	242	12	175
0.9699996	0.9299992	0.8999988	242	12	178
0.9709996	0.9289992	0.8999988	242	12	181
0.97199965	0.92799914	0.8999988	242	12	183
0.97299963	0.92699915	0.8999988	242	12	186
0.9739996	0.92599916	0.8999988	242	12	188
0.97499967	0.9249991	0.8999988	242	12	191
0.97599965	0.92399913	0.8999988	242	12	193
0.97699964	0.9229991	0.8999988	242	12	196
0.9779997	0.9219991	0.8999988	242	12	198
0.97899973	0.9209991	0.8999988	242	12	201
0.9799997	0.91999906	0.8999988	242	12	203
0.9809997	0.9189991	0.8999988	242	12	206
0.98199975	0.917999	0.8999988	242	12	209
0.98299974	0.91699904	0.8999988	242	12	211
0.9839997	0.91599905	0.8999988	242	12	214
0.9849998	0.914999	0.8999988	242	12	216
0.98599976	0.913999	0.8999988	242	12	219
0.9869998	0.912999	0.8999988	242	12	221
0.9879998	0.911999	0.8999988	242	12	224
0.98899984	0.910999	0.8999988	242	12	226
0.98999983	0.90999895	0.8999988	242	12	229
0.9909998	0.90899897	0.8999988	242	12	232
0.99199986	0.9079989	0.8999988	242	12	234
0.99299985	0.90699893	0.8999988	242	12	237
0.99399984	0.90599895	0.8999988	242	12	239
0.9949999	0.9049989	0.8999988	242	12	242
0.9959999	0.9039989	0.8999988	242	12	244
0.9969999	0.90299886	0.8999988	242	12	247
0.9979999	0.9019989	0.8999988	242	12	249
0.99899995	0.9009989	0.8999988	242	12	252
0.99999994	0.89999884	0.8999988	242	12	254
1.0	0.8999988	0.8999988	255	0	0
0.8999988	1.0	0.8999988	0	0	255
0.91999876	1.0	0.91999876	244	10	0
0.9207988	0.9992	0.91999876	244	10	2
0.9215988	0.9984	0.91999876	244	10	5
0.9223988	0.9976	0.9199988	244	10	7
0.9231988	0.99679995	0.91999876	244	10	10
0.92399883	0.99599993	0.91999876	244	10	12
0.92479885	0.9951999	0.91999876	244	10	15
0.92559886	0.9943999	0.91999876	244	10	17
0.9263989	0.9935999	0.91999876	244	10	20
0.9271989	0.9927999	0.91999876	244	10	22
0.9279989	0.9919999	0.9199988	244	10	25
0.9287989	0.99119985	0.91999876	244	10	28
0.9295989	0.99039984	0.91999876	244	10	30
0.93039894	0.9895998	0.91999876	244	10	33
0.93119895	0.9887998	0.91999876	244	10	35
0.93199897	0.9879998	0.91999876	244	10	38
0.932799	0.98719984	0.9199988	244	10	40
0.933599	0.98639977	0.91999876	244	10	43
0.934399	0.98559976	0.91999876	244	10	45
0.935199	0.98479974	0.91999876	244	10	48
0.93599904	0.9839997	0.91999876	244	10	51
0.93679905	0.9831997	0.91999876	244	10	53
0.93759906	0.9823997	0.91999876	244	10	56
0.9383991	0.98159975	0.9199988	244	10	58
0.9391991	0.98079973	0.9199988	244	10	61
0.9399991	0.9799997	0.9199988	244	10	63
0.9407991	0.9791997	0.91999876	244	10	66
0.94159913	0.9783997	0.91999876	244	10	68
0.94239914	0.9775997	0.91999876	244	10	71
0.94319916	0.97679967	0.91999876	244	10	73
0.9439992	0.97599965	0.91999876	244	10	76
0.9447992	0.97519964	0.91999876	244	10	79
0.9455992	0.9743996	0.91999876	244	10	81
0.9463992	0.9735996	0.91999876	244	10	84
0.9471992	0.97279966	0.91999876	244	10	86
0.94799924	0.97199965	0.91999876	244	10	89
0.94879925	0.97119963	0.91999876	244	10	91
0.94959927	0.9703996	0.91999876	244	10	94
0.9503993	0.9695996	0.91999876	244	10	96
0.9511993	0.9687996	0.91999876	244	10	99
0.9519993	0.9679996	0.91999876	244	10	101
0.9527993	0.96719956	0.91999876	244	10	104
0.95359933	0.96639955	0.91999876	244	10	107
0.95439935	0.96559954	0.91999876	244	10	109
0.95519936	0.9647995	0.91999876	244	10	112
0.9559994	0.9639995	0.91999876	244	10	114
0.9567994	0.9631995	0.91999876	244	10	117
0.9575994	0.9623995	0.91999876	244	10	119
0.95839936	0.96159947	0.91999876	244	10	122
0.95919937	0.96079946	0.91999876	244	10	124
0.9599994	0.95999944	0.91999876	244	10	127
0.96079934	0.9591994	0.91999876	244	10	130
0.96159935	0.9583994	0.91999876	244	10	132
0.96239936	0.9575994	0.91999876	244	10	135
0.9631994	0.9567994	0.91999876	244	10	137
0.9639994	0.9559993	0.91999876	244	10	140
0.9647994	0.9551993	0.91999876	244	10	142
0.9655994	0.9543993	0.91999876	244	10	145
0.96639943	0.95359933	0.91999876	244	10	147
0.96719944	0.9527993	0.91999876	244	10	150
0.96799946	0.9519993	0.91999876	244	10	152
0.9687995	0.9511993	0.91999876	244	10	155
0.9695995	0.9503993	0.91999876	244	10	158
0.9703995	0.94959927	0.91999876	244	10	160
0.9711995	0.94879925	0.91999876	244	10	163
0.9719995	0.94799924	0.91999876	244	10	165
0.97279954	0.9471992	0.91999876	244	10	168
0.97359955	0.9463992	0.91999876	244	10	170
0.97439957	0.9455992	0.91999876	244	10	173
0.9751996	0.9447992	0.91999876	244	10	175
0.9759996	0.9439992	0.91999876	244	10	178
0.9767996	0.94319916	0.91999876	244	10	181
0.9775996	0.94239914	0.91999876	244	10	183
0.97839963	0.94159913	0.91999876	244	10	186
0.97919965	0.9407991	0.91999876	244	10	188
0.97999966	0.9399991	0.91999876	244	10	191
0.9807997	0.9391991	0.91999876	244	10	193
0.9815997	0.9383991	0.91999876	244	10	196
0.9823997	0.93759906	0.91999876	244	10	198
0.9831997	0.93679905	0.91999876	244	10	201
0.9839997	0.93599904	0.91999876	244	10	203
0.98479974	0.935199	0.91999876	244	10	206
0.98559976	0.934399	0.91999876	244	10	209
0.98639977	0.933599	0.91999876	244	10	211
0.9871998	0.932799	0.91999876	244	10	214
0.9879998	0.93199897	0.91999876	244	10	216
0.9887998	0.93119895	0.91999876	244	10	219
0.9895998	0.93039894	0.91999876	244	10	221
0.99039984	0.9295989	0.91999876	244	10	224
0.99119985	0.928799	0.91999876	244	10	226
0.99199986	0.92799896	0.91999876	244	10	229
0.9927998	0.92719895	0.91999876	244	10	232
0.99359983	0.92639893	0.91999876	244	10	234
0.99439985	0.9255989	0.91999876	244	10	237
0.99519986	0.9247989	0.91999876	244	10	239
0.9959999	0.9239989	0.91999876	244	10	242
0.9967999	0.9231989	0.91999876	244	10	244
0.9975999	0.92239887	0.91999876	244	10	247
0.9983999	0.92159885	0.91999876	244	10	249
0.9991999	0.92079884	0.91999876	244	10	252
0.99999994	0.9199988	0.91999876	244	10	254
1.0	0.91999876	0.91999876	255	0	0
0.91999876	1.0	0.91999876	0	0	255
0.93999875	1.0	0.93999875	247	7	0
0.9405988	0.9994	0.9399988	247	7	2
0.94119877	0.9988	0.93999875	247	7	5
0.9417988	0.9982	0.9399988	247	7	7
0.9423988	0.9975999	0.9399987	247	7	10
0.9429988	0.9969999	0.93999875	247	7	12
0.9435988	0.99639994	0.93999875	247	7	15
0.94419885	0.9957999	0.93999875	247	7	17
0.9447988	0.9951999	0.93999875	247	7	20
0.94539887	0.9945999	0.93999875	247	7	22
0.94599885	0.9939999	0.93999875	247	7	25
0.9465989	0.99339986	0.93999875	247	7	28
0.94719887	0.9927998	0.9399987	247	7	30
0.9477989	0.99219984	0.93999875	247	7	33
0.94839895	0.9915998	0.93999875	247	7	35
0.9489989	0.9909998	0.93999875	247	7	38
0.949599	0.99039984	0.9399988	247	7	40
0.95019895	0.98979974	0.93999875	247	7	43
0.950799	0.98919976	0.93999875	247	7	45
0.95139897	0.9885998	0.93999875	247	7	48
0.95199895	0.98799974	0.93999875	247	7	51
0.952599	0.9873997	0.93999875	247	7	53
0.953199	0.9867997	0.93999875	247	7	56
0.953799	0.98619974	0.93999875	247	7	58
0.9543991	0.98559976	0.93999875	247	7	61
0.9549991	0.9849997	0.9399988	247	7	63
0.95559907	0.9843997	0.93999875	247	7	66
0.95619917	0.9837997	0.9399988	247	7	68
0.95679915	0.9831997	0.93999875	247	7	71
0.95739913	0.9825997	0.9399988	247	7	73
0.9579991	0.98199964	0.93999875	247	7	76
0.9585992	0.98139966	0.9399988	247	7	79
0.9591992	0.9807997	0.93999875	247	7	81
0.9597992	0.9801996	0.93999875	247	7	84
0.96039915	0.9795996	0.93999875	247	7	86
0.96099925	0.9789996	0.93999875	247	7	89
0.96159923	0.9783996	0.93999875	247	7	91
0.9621992	0.97779953	0.93999875	247	7	94
0.9627992	0.97719955	0.93999875	247	7	96
0.9633993	0.9765996	0.93999875	247	7	99
0.9639993	0.97599953	0.93999875	247	7	101
0.96459925	0.9753995	0.93999875	247	7	104
0.96519935	0.9747995	0.9399988	247	7	107
0.96579933	0.97419953	0.93999875	247	7	109
0.9663993	0.9735995	0.9399988	247	7	112
0.9669993	0.97299945	0.93999875	247	7	114
0.9675994	0.9723995	0.9399988	247	7	117
0.9681994	0.9717995	0.93999875	247	7	119
0.96879935	0.97119945	0.93999875	247	7	122
0.96939933	0.9705994	0.93999875	247	7	124
0.96999943	0.96999943	0.93999875	247	7	127
0.9705994	0.96939933	0.93999875	247	7	130
0.9711994	0.96879935	0.93999875	247	7	132
0.9717994	0.9681994	0.93999875	247	7	135
0.9723994	0.96759933	0.93999875	247	7	137
0.97299945	0.96699935	0.93999875	247	7	140
0.97359943	0.9663993	0.93999875	247	7	142
0.9741994	0.9657993	0.93999875	247	7	145
0.97479945	0.9651993	0.93999875	247	7	147
0.9753995	0.96459925	0.93999875	247	7	150
0.9759995	0.9639993	0.93999875	247	7	152
0.97659945	0.96339923	0.93999875	247	7	155
0.9771995	0.96279925	0.93999875	247	7	158
0.97779953	0.9621992	0.93999875	247	7	160
0.9783995	0.96159923	0.93999875	247	7	163
0.97899956	0.9609992	0.93999875	247	7	165
0.9795996	0.9603992	0.93999875	247	7	168
0.9801996	0.9597992	0.93999875	247	7	170
0.98079956	0.9591992	0.93999875	247	7	173
0.9813996	0.95859915	0.93999875	247	7	175
0.98199964	0.95799917	0.93999875	247	7	178
0.9825996	0.95739913	0.93999875	247	7	181
0.9831996	0.95679915	0.93999875	247	7	183
0.98379964	0.9561991	0.93999875	247	7	186
0.9843997	0.95559907	0.93999875	247	7	188
0.98499966	0.9549991	0.93999875	247	7	191
0.98559964	0.95439905	0.93999875	247	7	193
0.9861997	0.95379907	0.93999875	247	7	196
0.9867997	0.953199	0.93999875	247	7	198
0.9873997	0.95259905	0.93999875	247	7	201
0.98799974	0.951999	0.93999875	247	7	203
0.9885997	0.951399	0.93999875	247	7	206
0.98919976	0.950799	0.93999875	247	7	209
0.98979974	0.950199	0.93999875	247	7	211
0.9903998	0.94959897	0.93999875	247	7	214
0.9909998	0.948999	0.93999875	247	7	216
0.9915998	0.94839895	0.93999875	247	7	219
0.9921998	0.94779897	0.93999875	247	7	221
0.9927998	0.9471989	0.93999875	247	7	224
0.99339986	0.9465989	0.93999875	247	7	226
0.99399984	0.9459989	0.93999875	247	7	229
0.9945999	0.94539887	0.93999875	247	7	232
0.99519986	0.9447989	0.93999875	247	7	234
0.9957999	0.94419885	0.93999875	247	7	237
0.9963999	0.94359887	0.93999875	247	7	239
0.9969999	0.9429988	0.93999875	247	7	242
0.9975999	0.94239885	0.93999875	247	7	244
0.99819994	0.9417988	0.93999875	247	7	247
0.9987999	0.9411988	0.93999875	247	7	249
0.99939996	0.9405988	0.93999875	247	7	252
0.99999994	0.9399988	0.93999875	247	7	254
1.0	0.93999875	0.93999875	255	0	0
0.93999875	1.0	0.93999875	0	0	255
0.9599987	1.0	0.9599987	249	5	0
0.96039873	0.9996	0.9599987	249	5	2
0.96079874	0.9992	0.9599987	249	5	5
0.96119875	0.9988	0.9599987	249	5	7
0.96159875	0.9983999	0.95999867	249	5	10
0.9619988	0.9979999	0.9599987	249	5	12
0.9623988	0.9975999	0.9599987	249	5	15
0.96279883	0.9971999	0.9599987	249	5	17
0.96319884	0.9967999	0.9599987	249	5	20
0.96359885	0.9963999	0.9599987	249	5	22
0.96399885	0.9959999	0.9599987	249	5	25
0.96439886	0.9955998	0.95999867	249	5	28
0.96479887	0.9951998	0.95999867	249	5	30
0.9651989	0.99479985	0.9599987	249	5	33
0.9655989	0.9943998	0.9599987	249	5	35
0.9659989	0.99399984	0.9599987	249	5	38
0.96639895	0.99359983	0.9599988	249	5	40
0.96679896	0.99319977	0.9599987	249	5	43
0.96719897	0.99279976	0.9599987	249	5	45
0.967599	0.99239975	0.9599987	249	5	48
0.967999	0.99199975	0.9599987	249	5	51
0.968399	0.99159974	0.9599987	249	5	53
0.968799	0.99119973	0.9599987	249	5	56
0.969199	0.9907997	0.9599987	249	5	58
0.969599	0.9903997	0.9599987	249	5	61
0.9699991	0.9899997	0.9599988	249	5	63
0.97039914	0.9895997	0.9599988	249	5	66
0.9707991	0.9891997	0.9599988	249	5	68
0.97119915	0.9887997	0.9599987	249	5	71
0.9715991	0.9883996	0.9599987	249	5	73
0.97199917	0.9879997	0.9599987	249	5	76
0.9723991	0.9875996	0.9599987	249	5	79
0.9727992	0.98719966	0.9599987	249	5	81
0.9731991	0.9867996	0.9599987	249	5	84
0.9735992	0.9863996	0.9599987	249	5	86
0.97399914	0.9859996	0.9599987	249	5	89
0.9743992	0.9855996	0.9599988	249	5	91
0.9747993	0.9851996	0.9599988	249	5	94
0.9751992	0.98479956	0.9599988	249	5	96
0.9755993	0.98439956	0.9599987	249	5	99
0.97599924	0.9839995	0.9599987	249	5	101
0.9763993	0.98359954	0.9599987	249	5	104
0.97679925	0.9831995	0.9599987	249	5	107
0.9771993	0.98279953	0.9599987	249	5	109
0.97759926	0.98239946	0.9599987	249	5	112
0.9779993	0.98199946	0.9599987	249	5	114
0.9783993	0.98159945	0.9599987	249	5	117
0.97879934	0.98119944	0.9599988	249	5	119
0.97919935	0.98079944	0.9599987	249	5	122
0.97959936	0.98039937	0.9599987	249	5	124
0.9799994	0.9799994	0.9599987	249	5	127
0.98039937	0.97959936	0.9599987	249	5	130
0.9807994	0.97919935	0.9599987	249	5	132
0.9811994	0.97879934	0.9599987	249	5	135
0.98159945	0.97839934	0.9599987	249	5	137
0.9819994	0.9779993	0.9599987	249	5	140
0.98239946	0.9775993	0.9599987	249	5	142
0.9827994	0.97719926	0.9599987	249	5	145
0.9831995	0.97679925	0.9599987	249	5	147
0.9835994	0.97639924	0.9599987	249	5	150
0.9839995	0.97599924	0.9599987	249	5	152
0.9843995	0.9755992	0.9599987	249	5	155
0.9847995	0.9751992	0.9599987	249	5	158
0.9851995	0.9747992	0.9599987	249	5	160
0.9855995	0.9743992	0.9599987	249	5	163
0.9859996	0.9739992	0.9599987	249	5	165
0.98639953	0.9735992	0.9599987	249	5	168
0.9867996	0.9731992	0.9599987	249	5	170
0.98719954	0.9727991	0.9599987	249	5	173
0.9875996	0.9723991	0.9599987	249	5	175
0.9879996	0.9719991	0.9599987	249	5	178
0.9883996	0.9715991	0.9599987	249	5	181
0.98879963	0.9711991	0.9599987	249	5	183
0.98919964	0.9707991	0.9599987	249	5	186
0.98959965	0.9703991	0.9599987	249	5	188
0.98999965	0.9699991	0.9599987	249	5	191
0.99039966	0.96959907	0.9599987	249	5	193
0.99079967	0.96919906	0.9599987	249	5	196
0.99119973	0.968799	0.9599987	249	5	198
