ply
format ascii 1.0
comment
element vertex 1271
property float x
property float y
property float z
property uchar red
property uchar green
property uchar blue
element face 0
property list uchar int vertex_index
end_header
218.69966	181.79977	123.0	22	232	242
224.15967	185.43977	123.0	22	232	244
229.61966	189.07977	123.0	22	232	247
235.07965	192.71977	123.0	22	232	249
240.53964	196.35977	123.0	22	232	252
245.99963	199.99976	123.0	22	232	254
246.0	200.0	123.0	255	0	0
-300.0	-164.0	123.0	0	0	255
-300.0	-160.0	120.0	25	229	0
-294.6	-156.4	120.0	25	229	2
-289.2	-152.8	120.00001	25	229	5
-283.8	-149.20001	120.0	25	229	7
-278.4	-145.59999	120.0	25	229	10
-273.0	-142.0	120.0	25	229	12
-267.6	-138.4	120.0	25	229	15
-262.2	-134.8	120.0	25	229	17
-256.8	-131.2	120.0	25	229	20
-251.40001	-127.600006	120.0	25	229	22
-246.0	-124.0	120.00001	25	229	25
-240.6	-120.399994	119.99999	25	229	28
-235.20001	-116.8	120.0	25	229	30
-229.8	-113.2	120.0	25	229	33
-224.4	-109.600006	120.0	25	229	35
-219.0	-106.0	120.0	25	229	38
-213.60002	-102.40001	120.0	25	229	40
-208.2	-98.8	120.0	25	229	43
-202.8	-95.2	120.0	25	229	45
-197.4	-91.600006	120.0	25	229	48
-191.99998	-87.999985	119.99999	25	229	51
-186.59998	-84.399994	120.0	25	229	53
-181.19998	-80.79999	120.0	25	229	56
-175.79999	-77.19999	120.0	25	229	58
-170.4	-73.59999	120.0	25	229	61
-165.0	-69.99999	120.0	25	229	63
-159.59999	-66.399994	120.00001	25	229	66
-154.2	-62.8	120.00001	25	229	68
-148.80002	-59.200005	120.0	25	229	71
-143.40002	-55.600006	120.0	25	229	73
-138.00003	-52.00001	120.0	25	229	76
-132.60002	-48.400013	120.0	25	229	79
-127.20003	-44.80002	120.0	25	229	81
-121.80004	-41.20002	120.0	25	229	84
-116.40005	-37.60002	120.0	25	229	86
-111.000046	-34.00003	120.00001	25	229	89
-105.60005	-30.400032	120.0	25	229	91
-100.20005	-26.800034	120.0	25	229	94
-94.80006	-23.200035	120.0	25	229	96
-89.40007	-19.600044	120.0	25	229	99
-84.00008	-16.000046	120.0	25	229	101
-78.600075	-12.400047	120.0	25	229	104
-73.20008	-8.800049	120.0	25	229	107
-67.80008	-5.200058	120.00001	25	229	109
-62.4001	-1.6000595	120.0	25	229	112
-57.0001	1.999939	120.0	25	229	114
-51.600105	5.5999374	120.0	25	229	117
-46.200104	9.199928	120.0	25	229	119
-40.80011	12.799927	120.0	25	229	122
-35.40011	16.399925	120.0	25	229	124
-30.00013	19.999924	120.0	25	229	127
-24.600105	23.59993	120.0	25	229	130
-19.200111	27.199928	120.0	25	229	132
-13.80011	30.799927	120.0	25	229	135
-8.400116	34.399918	120.0	25	229	137
-3.000122	37.999916	120.0	25	229	140
2.3998718	41.599915	120.0	25	229	142
7.7998657	45.199913	120.0	25	229	145
13.19986	48.799904	120.0	25	229	147
18.599854	52.399902	120.0	25	229	150
23.999855	55.9999	120.0	25	229	152
29.399849	59.5999	120.0	25	229	155
34.799835	63.19989	120.0	25	229	158
40.19983	66.79989	120.0	25	229	160
45.59984	70.39989	120.0	25	229	163
50.999825	73.999886	120.0	25	229	165
56.39982	77.599884	120.0	25	229	168
61.799812	81.19988	120.0	25	229	170
67.199814	84.799866	120.0	25	229	173
72.59981	88.399864	120.0	25	229	175
77.999794	91.99986	120.0	25	229	178
83.39979	95.59986	120.0	25	229	181
88.7998	99.19986	120.0	25	229	183
94.19978	102.79986	120.0	25	229	186
99.59978	106.39986	120.0	25	229	188
104.99977	109.999855	120.0	25	229	191
110.39977	113.59984	120.0	25	229	193
115.79977	117.19984	120.0	25	229	196
121.19975	120.799835	120.0	25	229	198
126.59975	124.39983	120.0	25	229	201
131.99976	127.99983	120.0	25	229	203
137.39975	131.59984	120.0	25	229	206
142.79974	135.19983	120.0	25	229	209
148.19972	138.79984	120.0	25	229	211
153.59973	142.39981	120.0	25	229	214
158.99973	145.99982	120.0	25	229	216
164.39972	149.59981	120.0	25	229	219
169.79971	153.19981	120.0	25	229	221
175.1997	156.7998	120.0	25	229	224
180.5997	160.39981	120.0	25	229	226
185.9997	163.9998	120.0	25	229	229
191.39969	167.59981	120.0	25	229	232
196.7997	171.19978	120.0	25	229	234
202.19968	174.79979	120.0	25	229	237
207.59967	178.39978	120.0	25	229	239
212.99966	181.99979	120.0	25	229	242
218.39967	185.59978	120.0	25	229	244
223.79967	189.19978	120.0	25	229	247
229.19965	192.79977	120.0	25	229	249
234.59964	196.39978	120.0	25	229	252
239.99965	199.99976	120.0	25	229	254
240.0	200.0	120.0	255	0	0
-300.0	-160.0	120.0	0	0	255
-300.0	-156.0	117.0	28	226	0
-294.66	-152.44	117.0	28	226	2
-289.32	-148.88	117.0	28	226	5
-283.98	-145.32	117.00001	28	226	7
-278.64	-141.76	117.0	28	226	10
-273.3	-138.2	117.0	28	226	12
-267.96	-134.64	117.0	28	226	15
-262.62	-131.08	117.0	28	226	17
-257.28	-127.520004	117.0	28	226	20
-251.94	-123.96001	117.0	28	226	22
-246.6	-120.40001	117.0	28	226	25
-241.26001	-116.84	116.99999	28	226	28
-235.92	-113.28	117.0	28	226	30
-230.58	-109.72	117.0	28	226	33
-225.24	-106.16	117.0	28	226	35
-219.9	-102.600006	117.0	28	226	38
-214.56001	-99.04001	117.00001	28	226	40
-209.22	-95.479996	117.0	28	226	43
-203.88	-91.92	117.0	28	226	45
-198.54	-88.36	117.0	28	226	48
-193.19998	-84.79999	116.99999	28	226	51
-187.85999	-81.23999	117.0	28	226	53
-182.51997	-77.679985	117.0	28	226	56
-177.18	-74.11999	117.0	28	226	58
-171.84	-70.55999	117.0	28	226	61
-166.5	-66.99999	117.0	28	226	63
-161.16	-63.44	117.0	28	226	66
-155.81999	-59.88	117.00001	28	226	68
-150.48001	-56.320007	117.0	28	226	71
-145.14001	-52.76001	117.00001	28	226	73
-139.80002	-49.20001	117.00001	28	226	76
-134.46002	-45.64001	117.0	28	226	79
-129.12003	-42.080017	117.0	28	226	81
-123.780045	-38.52002	117.0	28	226	84
-118.44004	-34.960022	117.0	28	226	86
-113.100044	-31.400032	117.0	28	226	89
-107.76005	-27.840034	117.0	28	226	91
-102.42005	-24.28003	117.0	28	226	94
-97.080055	-20.720032	117.0	28	226	96
-91.74007	-17.160042	117.00001	28	226	99
-86.40007	-13.600044	117.00001	28	226	101
-81.060074	-10.040047	117.0	28	226	104
-75.72008	-6.480049	117.0	28	226	107
-70.38008	-2.9200592	117.0	28	226	109
-65.0401	0.63993835	117.0	28	226	112
-59.700096	4.199936	117.0	28	226	114
-54.3601	7.759941	117.0	28	226	117
-49.020103	11.319931	117.0	28	226	119
-43.680107	14.879929	117.0	28	226	122
-38.34011	18.439926	117.0	28	226	124
-33.000122	21.999924	117.0	28	226	127
-27.660103	25.559929	117.0	28	226	130
-22.320107	29.119934	117.0	28	226	132
-16.98011	32.67993	117.0	28	226	135
-11.640114	36.23992	117.0	28	226	137
-6.30011	39.79992	117.0	28	226	140
-0.9601288	43.359917	117.0	28	226	142
4.3798676	46.919914	117.0	28	226	145
9.719864	50.479904	117.0	28	226	147
15.05986	54.039906	117.0	28	226	150
20.399849	57.599903	117.0	28	226	152
25.739845	61.1599	117.0	28	226	155
31.079834	64.719894	117.0	28	226	158
36.41983	68.27989	117.0	28	226	160
41.759842	71.83989	117.0	28	226	163
47.09983	75.39989	117.0	28	226	165
52.439827	78.959885	117.0	28	226	168
57.779823	82.51988	117.0	28	226	170
63.119812	86.079865	117.0	28	226	173
68.45981	89.63986	117.0	28	226	175
73.7998	93.19987	117.0	28	226	178
79.13979	96.759865	117.0	28	226	181
84.47979	100.31986	117.0	28	226	183
89.81978	103.87986	117.0	28	226	186
95.15979	107.439865	117.0	28	226	188
100.49979	110.99986	117.0	28	226	191
105.839775	114.559845	117.0	28	226	193
111.17977	118.11984	117.0	28	226	196
116.51976	121.67984	117.0	28	226	198
121.85976	125.23984	117.0	28	226	201
127.19975	128.79984	117.0	28	226	203
132.53975	132.35983	117.0	28	226	206
137.87973	135.91983	117.0	28	226	209
143.21973	139.47983	117.0	28	226	211
148.55972	143.03981	117.0	28	226	214
153.89973	146.59981	117.0	28	226	216
159.23973	150.1598	117.0	28	226	219
164.57971	153.71982	117.0	28	226	221
169.91971	157.27982	117.0	28	226	224
175.2597	160.83981	117.0	28	226	226
180.5997	164.39981	117.0	28	226	229
185.9397	167.95981	117.0	28	226	232
191.2797	171.51979	117.0	28	226	234
196.61967	175.07979	117.0	28	226	237
201.95967	178.63979	117.0	28	226	239
207.29967	182.19978	117.0	28	226	242
212.63968	185.75978	117.0	28	226	244
217.97968	189.31978	117.0	28	226	247
223.31967	192.87978	117.0	28	226	249
228.65965	196.43977	117.0	28	226	252
233.99965	199.99976	117.0	28	226	254
234.0	200.0	117.0	255	0	0
-300.0	-156.0	117.0	0	0	255
-300.0	-152.0	114.0	30	224	0
-294.72	-148.48	114.0	30	224	2
-289.44	-144.96	114.0	30	224	5
-284.16	-141.44	114.0	30	224	7
-278.88	-137.92	113.99999	30	224	10
-273.6	-134.4	113.99999	30	224	12
-268.32	-130.88	113.99999	30	224	15
-263.04	-127.36	114.0	30	224	17
-257.76	-123.84	114.0	30	224	20
-252.48001	-120.32001	114.0	30	224	22
-247.2	-116.8	114.00001	30	224	25
-241.92	-113.28	114.0	30	224	28
-236.64	-109.759995	114.0	30	224	30
-231.36	-106.240005	114.0	30	224	33
-226.08	-102.72	114.0	30	224	35
-220.8	-99.2	114.0	30	224	38
-215.52002	-95.68001	114.0	30	224	40
-210.23999	-92.159996	114.0	30	224	43
-204.95999	-88.64	114.0	30	224	45
-199.68	-85.119995	114.00001	30	224	48
-194.39998	-81.59999	114.0	30	224	51
-189.11998	-78.07999	114.0	30	224	53
-183.83998	-74.55999	114.0	30	224	56
-178.56	-71.039986	114.0	30	224	58
-173.28	-67.51999	114.0	30	224	61
-168.0	-63.999992	114.0	30	224	63
-162.72	-60.48	114.0	30	224	66
-157.44	-56.960003	114.0	30	224	68
-152.16002	-53.440002	114.0	30	224	71
-146.88002	-49.920006	114.0	30	224	73
-141.60002	-46.400013	114.0	30	224	76
-136.32002	-42.88001	114.0	30	224	79
-131.04002	-39.360016	114.0	30	224	81
-125.76004	-35.84002	114.0	30	224	84
-120.48004	-32.320023	114.00001	30	224	86
-115.20004	-28.800034	114.00001	30	224	89
-109.920044	-25.28003	114.00001	30	224	91
-104.64005	-21.760033	114.0	30	224	94
-99.360054	-18.240036	114.0	30	224	96
-94.08007	-14.720039	114.0	30	224	99
-88.80007	-11.200043	114.0	30	224	101
-83.52007	-7.680046	114.0	30	224	104
-78.240074	-4.1600494	114.0	30	224	107
-72.960075	-0.6400604	114.0	30	224	109
-67.68009	2.8799438	114.0	30	224	112
-62.4001	6.3999405	114.0	30	224	114
-57.120102	9.919937	114.0	30	224	117
-51.840103	13.439934	114.0	30	224	119
-46.560104	16.95993	114.0	30	224	122
-41.280106	20.479927	114.0	30	224	124
-36.000122	23.999924	114.0	30	224	127
-30.7201	27.519936	114.0	30	224	130
-25.44011	31.039932	114.0	30	224	132
-20.16011	34.55993	114.0	30	224	135
-14.880112	38.079918	114.0	30	224	137
-9.600113	41.599922	114.0	30	224	140
-4.3201294	45.11992	114.0	30	224	142
0.9598694	48.639915	114.0	30	224	145
6.239868	52.15991	114.0	30	224	147
11.519867	55.679905	114.0	30	224	150
16.799858	59.199905	114.0	30	224	152
22.079857	62.719902	114.0	30	224	155
27.359848	66.2399	114.0	30	224	158
32.639847	69.75989	114.0	30	224	160
37.91983	73.27989	114.0	30	224	163
43.19982	76.79989	114.0	30	224	165
48.47982	80.319885	114.0	30	224	168
53.75982	83.83989	114.0	30	224	170
59.03981	87.35987	114.0	30	224	173
64.31981	90.87987	114.0	30	224	175
69.5998	94.39987	114.0	30	224	178
74.8798	97.91986	114.0	30	224	181
80.1598	101.439865	114.0	30	224	183
85.43979	104.95986	114.0	30	224	186
90.71979	108.47986	114.0	30	224	188
95.99979	111.99986	114.0	30	224	191
101.27978	115.519844	114.0	30	224	193
106.55978	119.03984	114.0	30	224	196
111.83977	122.559845	114.0	30	224	198
117.11977	126.07984	114.0	30	224	201
122.39975	129.59984	114.0	30	224	203
127.67975	133.11984	114.0	30	224	206
132.95975	136.63983	114.0	30	224	209
138.23973	140.15984	114.0	30	224	211
143.51973	143.67981	114.0	30	224	214
148.79973	147.19981	114.0	30	224	216
154.07973	150.71982	114.0	30	224	219
159.35971	154.2398	114.0	30	224	221
164.63971	157.75981	114.0	30	224	224
169.91971	161.27982	114.0	30	224	226
175.1997	164.7998	114.0	30	224	229
180.4797	168.31981	114.0	30	224	232
185.7597	171.83978	114.0	30	224	234
191.03969	175.35979	114.0	30	224	237
196.31969	178.87979	114.0	30	224	239
201.59969	182.39978	114.0	30	224	242
206.87967	185.91978	114.0	30	224	244
212.15967	189.43979	114.0	30	224	247
217.43967	192.95978	114.0	30	224	249
222.71965	196.47978	114.0	30	224	252
227.99965	199.99976	114.0	30	224	254
228.0	200.0	114.0	255	0	0
-300.0	-152.0	114.0	0	0	255
-300.0	-148.0	111.0	33	221	0
-294.78	-144.52	111.0	33	221	2
-289.56	-141.04001	111.0	33	221	5
-284.34	-137.56	111.00001	33	221	7
-279.12	-134.08	111.0	33	221	10
-273.9	-130.59999	111.0	33	221	12
-268.68	-127.119995	110.99999	33	221	15
-263.46	-123.64	111.0	33	221	17
-258.24	-120.16	111.0	33	221	20
-253.02	-116.68001	111.0	33	221	22
-247.8	-113.20001	111.0	33	221	25
-242.58	-109.72	111.0	33	221	28
-237.36	-106.240005	111.0	33	221	30
-232.14	-102.759995	111.0	33	221	33
-226.92	-99.28	111.0	33	221	35
-221.7	-95.8	111.00001	33	221	38
-216.48001	-92.32001	111.00001	33	221	40
-211.26	-88.84	111.0	33	221	43
-206.04	-85.36	111.0	33	221	45
-200.81999	-81.87999	111.00001	33	221	48
-195.59998	-78.399994	111.0	33	221	51
-190.37997	-74.92	111.0	33	221	53
-185.15997	-71.43999	111.0	33	221	56
-179.93999	-67.95999	111.00001	33	221	58
-174.71999	-64.47999	111.00001	33	221	61
-169.5	-60.999992	111.0	33	221	63
-164.28	-57.52	111.0	33	221	66
-159.06	-54.039997	111.0	33	221	68
-153.84001	-50.560005	111.00001	33	221	71
-148.62003	-47.08	111.0	33	221	73
-143.40002	-43.60001	111.0	33	221	76
-138.18002	-40.120014	111.0	33	221	79
-132.96002	-36.640015	111.00001	33	221	81
-127.74004	-33.16002	111.0	33	221	84
-122.52004	-29.680023	111.0	33	221	86
-117.30005	-26.200027	111.0	33	221	89
-112.08005	-22.720032	111.0	33	221	91
-106.86005	-19.240036	111.00001	33	221	94
-101.64005	-15.760033	111.0	33	221	96
-96.42007	-12.280045	111.0	33	221	99
-91.20007	-8.800041	111.0	33	221	101
-85.98007	-5.3200455	111.00001	33	221	104
-80.76008	-1.8400497	111.0	33	221	107
-75.54008	1.639946	111.0	33	221	109
-70.32009	5.1199417	111.0	33	221	112
-65.1001	8.599945	111.0	33	221	114
-59.880096	12.079941	111.0	33	221	117
-54.660103	15.559929	111.0	33	221	119
-49.4401	19.039932	111.0	33	221	122
-44.220108	22.519928	111.0	33	221	124
-39.000122	25.999924	111.0	33	221	127
-33.780106	29.479935	111.0	33	221	130
-28.560104	32.95993	111.0	33	221	132
-23.34011	36.439934	111.0	33	221	135
-18.12011	39.91992	111.0	33	221	137
-12.900108	43.399918	111.0	33	221	140
-7.68013	46.87992	111.0	33	221	142
-2.4601288	50.359917	111.0	33	221	145
2.7598724	53.83991	111.0	33	221	147
7.9798584	57.31991	111.0	33	221	150
13.199852	60.799908	111.0	33	221	152
18.419853	64.27991	111.0	33	221	155
23.639847	67.759895	111.0	33	221	158
28.859848	71.2399	111.0	33	221	160
34.079834	74.719894	111.0	33	221	163
39.299828	78.19989	111.0	33	221	165
44.51983	81.679886	111.0	33	221	168
49.73983	85.15989	111.0	33	221	170
54.95981	88.63988	111.0	33	221	173
60.17981	92.11987	111.0	33	221	175
65.3998	95.59987	111.0	33	221	178
70.619804	99.079865	111.0	33	221	181
75.839806	102.55987	111.0	33	221	183
81.059784	106.03986	111.0	33	221	186
86.279785	109.51987	111.0	33	221	188
91.49979	112.99986	111.0	33	221	191
96.71978	116.47984	111.0	33	221	193
101.939766	119.95984	111.0	33	221	196
107.15976	123.43984	111.0	33	221	198
112.37976	126.919846	111.0	33	221	201
117.59976	130.39984	111.0	33	221	203
122.81976	133.87984	111.0	33	221	206
128.03973	137.35983	111.0	33	221	209
133.25974	140.83984	111.0	33	221	211
138.47974	144.31982	111.0	33	221	214
143.69974	147.79982	111.0	33	221	216
148.91974	151.27982	111.0	33	221	219
154.13971	154.75981	111.0	33	221	221
159.35971	158.2398	111.0	33	221	224
164.57971	161.71982	111.0	33	221	226
169.79971	165.19981	111.0	33	221	229
175.0197	168.67981	111.0	33	221	232
180.2397	172.15979	111.0	33	221	234
185.45969	175.63979	111.0	33	221	237
190.67969	179.11978	111.0	33	221	239
195.89969	182.5998	111.0	33	221	242
201.11967	186.07979	111.0	33	221	244
206.33968	189.55978	111.0	33	221	247
211.55966	193.03978	111.0	33	221	249
216.77966	196.51978	111.0	33	221	252
221.99965	199.99977	111.0	33	221	254
222.0	200.0	111.0	255	0	0
-300.0	-148.0	111.0	0	0	255
-300.0	-144.0	108.0	35	219	0
-294.84	-140.56	108.0	35	219	2
-289.68	-137.12	108.0	35	219	5
-284.52	-133.68001	108.0	35	219	7
-279.36	-130.23999	108.0	35	219	10
-274.2	-126.8	108.0	35	219	12
-269.04	-123.36	108.0	35	219	15
-263.88	-119.92	108.0	35	219	17
-258.72	-116.479996	108.0	35	219	20
-253.56	-113.04001	108.00001	35	219	22
-248.40001	-109.600006	108.0	35	219	25
-243.24	-106.16	107.99999	35	219	28
-238.08	-102.72	108.0	35	219	30
-232.92	-99.28	108.0	35	219	33
-227.76001	-95.84001	108.0	35	219	35
-222.6	-92.4	108.0	35	219	38
-217.44002	-88.96001	108.0	35	219	40
-212.28	-85.52	108.0	35	219	43
-207.12	-82.08	108.0	35	219	45
-201.95999	-78.64	108.0	35	219	48
-196.79999	-75.2	108.0	35	219	51
-191.63998	-71.759995	107.99999	35	219	53
-186.47998	-68.319984	108.0	35	219	56
-181.31999	-64.87999	108.0	35	219	58
-176.15999	-61.439995	108.00001	35	219	61
-171.0	-57.999992	108.0	35	219	63
-165.84	-54.559994	108.0	35	219	66
-160.68	-51.12	108.00001	35	219	68
-155.52002	-47.680008	108.0	35	219	71
-150.36002	-44.240005	108.00001	35	219	73
-145.20001	-40.800007	108.0	35	219	76
-140.04002	-37.360012	108.0	35	219	79
-134.88002	-33.92002	108.00001	35	219	81
-129.72003	-30.480019	108.0	35	219	84
-124.56004	-27.040016	108.0	35	219	86
-119.40005	-23.600029	108.0	35	219	89
-114.24004	-20.160034	108.0	35	219	91
-109.08005	-16.720032	108.0	35	219	94
-103.92005	-13.280029	108.0	35	219	96
-98.76007	-9.840042	108.0	35	219	99
-93.60007	-6.4000473	108.00001	35	219	101
-88.44007	-2.9600449	108.0	35	219	104
-83.280075	0.47995758	108.0	35	219	107
-78.12008	3.9199448	108.0	35	219	109
-72.96009	7.3599396	108.0	35	219	112
-67.800095	10.799942	108.0	35	219	114
-62.6401	14.239944	108.0	35	219	117
-57.480103	17.679932	108.0	35	219	119
-52.3201	21.119926	108.0	35	219	122
-47.160103	24.559929	108.0	35	219	124
-42.000122	27.999931	108.0	35	219	127
-36.840103	31.439934	108.0	35	219	130
-31.680107	34.879936	108.0	35	219	132
-26.520103	38.31993	108.0	35	219	135
-21.360107	41.759926	108.0	35	219	137
-16.200111	45.19992	108.0	35	219	140
-11.040131	48.63992	108.0	35	219	142
-5.880127	52.079918	108.0	35	219	145
-0.7201309	55.51991	108.0	35	219	147
4.439865	58.959908	108.0	35	219	150
9.599861	62.399906	108.0	35	219	152
14.75985	65.839905	108.0	35	219	155
19.919846	69.27989	108.0	35	219	158
25.07985	72.719894	108.0	35	219	160
30.239838	76.1599	108.0	35	219	163
35.399834	79.59989	108.0	35	219	165
40.559822	83.03989	108.0	35	219	168
45.719826	86.47989	108.0	35	219	170
50.87982	89.919876	108.0	35	219	173
56.03981	93.35987	108.0	35	219	175
61.199806	96.799866	108.0	35	219	178
66.35981	100.23987	108.0	35	219	181
71.5198	103.67987	108.0	35	219	183
76.679794	107.119865	108.0	35	219	186
81.83978	110.55986	108.0	35	219	188
86.99979	113.99986	108.0	35	219	191
92.15978	117.43985	108.0	35	219	193
97.31977	120.879845	108.0	35	219	196
102.47977	124.31984	108.0	35	219	198
107.63977	127.75984	108.0	35	219	201
112.79976	131.19984	108.0	35	219	203
117.95976	134.63983	108.0	35	219	206
123.11974	138.07983	108.0	35	219	209
128.27974	141.51984	108.0	35	219	211
133.43974	144.95982	108.0	35	219	214
138.59973	148.39981	108.0	35	219	216
143.75974	151.83981	108.0	35	219	219
148.91974	155.27982	108.0	35	219	221
154.07971	158.71982	108.0	35	219	224
159.23972	162.15982	108.0	35	219	226
164.3997	165.59981	108.0	35	219	229
169.55971	169.03981	108.0	35	219	232
174.71971	172.4798	108.0	35	219	234
179.87968	175.9198	108.0	35	219	237
185.03969	179.35979	108.0	35	219	239
190.19969	182.79979	108.0	35	219	242
195.35968	186.23979	108.0	35	219	244
200.51968	189.6798	108.0	35	219	247
205.67966	193.11978	108.0	35	219	249
210.83966	196.55978	108.0	35	219	252
215.99966	199.99977	108.0	35	219	254
216.0	200.0	108.0	255	0	0
-300.0	-144.0	108.0	0	0	255
-300.0	-140.0	105.0	38	216	0
-294.9	-136.6	105.00001	38	216	2
-289.8	-133.2	105.0	38	216	5
-284.7	-129.8	105.00001	38	216	7
-279.6	-126.399994	104.99999	38	216	10
-274.5	-123.0	105.0	38	216	12
-269.4	-119.600006	105.0	38	216	15
-264.3	-116.2	105.0	38	216	17
-259.2	-112.8	105.0	38	216	20
-254.1	-109.4	105.0	38	216	22
-249.0	-106.00001	105.0	38	216	25
-243.90001	-102.600006	104.99999	38	216	28
-238.8	-99.2	105.0	38	216	30
-233.70001	-95.8	105.0	38	216	33
-228.6	-92.40001	105.0	38	216	35
-223.5	-89.0	105.0	38	216	38
-218.40002	-85.600006	105.0	38	216	40
-213.3	-82.2	105.0	38	216	43
-208.2	-78.799995	105.0	38	216	45
-203.1	-75.399994	105.0	38	216	48
-197.99998	-71.999985	104.99999	38	216	51
-192.89998	-68.59999	105.0	38	216	53
-187.79999	-65.19999	105.0	38	216	56
-182.7	-61.799988	105.0	38	216	58
-177.59999	-58.399994	105.0	38	216	61
-172.5	-54.999992	105.0	38	216	63
-167.4	-51.599995	105.00001	38	216	66
-162.3	-48.2	105.0	38	216	68
-157.20001	-44.800003	105.00001	38	216	71
-152.10002	-41.40001	105.0	38	216	73
-147.00002	-38.00001	105.00001	38	216	76
-141.90002	-34.60001	105.0	38	216	79
-136.80002	-31.20002	105.0	38	216	81
-131.70004	-27.800018	105.0	38	216	84
-126.600044	-24.400017	105.0	38	216	86
-121.500046	-21.00003	105.0	38	216	89
-116.40005	-17.600029	105.0	38	216	91
-111.30005	-14.200027	105.0	38	216	94
-106.20005	-10.800034	105.0	38	216	96
-101.10007	-7.4000397	105.0	38	216	99
-96.00007	-4.000046	105.0	38	216	101
-90.90007	-0.60004425	105.0	38	216	104
-85.80007	2.7999573	105.0	38	216	107
-80.70007	6.1999435	105.0	38	216	109
-75.60009	9.599945	105.0	38	216	112
-70.50009	12.999939	105.0	38	216	114
-65.40009	16.39994	105.0	38	216	117
-60.300102	19.799934	105.0	38	216	119
-55.200104	23.199928	105.0	38	216	122
-50.100105	26.59993	105.0	38	216	124
-45.000122	29.999931	105.0	38	216	127
-39.9001	33.399933	105.0	38	216	130
-34.800102	36.799934	105.0	38	216	132
-29.700104	40.199936	105.0	38	216	135
-24.600105	43.599922	105.0	38	216	137
-19.500107	46.999924	105.0	38	216	140
-14.400124	50.39992	105.0	38	216	142
-9.300125	53.79992	105.0	38	216	145
-4.2001266	57.19991	105.0	38	216	147
0.8998718	60.59991	105.0	38	216	150
5.999855	63.99991	105.0	38	216	152
11.099861	67.3999	105.0	38	216	155
16.199844	70.7999	105.0	38	216	158
21.29985	74.1999	105.0	38	216	160
26.399841	77.5999	105.0	38	216	163
31.49984	80.99989	105.0	38	216	165
36.59983	84.39989	105.0	38	216	168
41.699837	87.7999	105.0	38	216	170
46.79982	91.199875	105.0	38	216	173
51.89981	94.59987	105.0	38	216	175
56.99981	97.99987	105.0	38	216	178
62.0998	101.39987	105.0	38	216	181
67.19981	104.799866	105.0	38	216	183
72.29979	108.19987	105.0	38	216	186
77.399796	111.59987	105.0	38	216	188
82.49979	114.99986	105.0	38	216	191
87.599785	118.39985	105.0	38	216	193
92.699776	121.79985	105.0	38	216	196
97.799774	125.199844	105.0	38	216	198
102.899765	128.59984	105.0	38	216	201
107.99977	131.99985	105.0	38	216	203
113.09976	135.39984	105.0	38	216	206
118.19976	138.79984	105.0	38	216	209
123.29974	142.19984	105.0	38	216	211
128.39973	145.59982	105.0	38	216	214
133.49974	148.99982	105.0	38	216	216
138.59973	152.39983	105.0	38	216	219
143.69974	155.79982	105.0	38	216	221
148.79971	159.19981	105.0	38	216	224
153.89972	162.59982	105.0	38	216	226
158.99971	165.99982	105.0	38	216	229
164.09972	169.39981	105.0	38	216	232
169.1997	172.7998	105.0	38	216	234
174.2997	176.1998	105.0	38	216	237
179.39969	179.5998	105.0	38	216	239
184.4997	182.99979	105.0	38	216	242
189.59969	186.3998	105.0	38	216	244
194.69969	189.79979	105.0	38	216	247
199.79968	193.19978	105.0	38	216	249
204.89967	196.5998	105.0	38	216	252
209.99966	199.99977	105.0	38	216	254
210.0	200.0	105.0	255	0	0
-300.0	-140.0	105.0	0	0	255
-300.0	-136.0	102.00001	40	214	0
-294.96	-132.64	102.00001	40	214	2
-289.92	-129.28	102.00001	40	214	5
-284.88	-125.92	102.00001	40	214	7
-279.84	-122.56	102.00001	40	214	10
-274.8	-119.2	102.00001	40	214	12
-269.76	-115.84	102.00001	40	214	15
-264.72	-112.48	102.00001	40	214	17
-259.68	-109.12	102.000015	40	214	20
-254.64	-105.76	102.00001	40	214	22
-249.6	-102.4	102.00001	40	214	25
-244.56	-99.04001	102.00001	40	214	28
-239.52	-95.68001	102.00001	40	214	30
-234.48	-92.32001	102.00001	40	214	33
-229.44	-88.96001	102.00001	40	214	35
-224.4	-85.600006	102.000015	40	214	38
-219.36002	-82.240005	102.00001	40	214	40
-214.31999	-78.88	102.00001	40	214	43
-209.28	-75.52	102.00001	40	214	45
-204.23999	-72.16	102.00001	40	214	48
-199.19998	-68.79999	102.0	40	214	51
-194.15997	-65.43999	102.00001	40	214	53
-189.11998	-62.079987	102.00001	40	214	56
-184.07999	-58.719994	102.00001	40	214	58
-179.04	-55.359993	102.00001	40	214	61
-173.99998	-51.999992	102.000015	40	214	63
-168.95999	-48.639996	102.00001	40	214	66
-163.92	-45.279995	102.00001	40	214	68
-158.88	-41.920006	102.000015	40	214	71
-153.84001	-38.560005	102.00001	40	214	73
-148.80002	-35.20001	102.00001	40	214	76
-143.76001	-31.840015	102.000015	40	214	79
-138.72002	-28.480019	102.00001	40	214	81
-133.68004	-25.120018	102.00001	40	214	84
-128.64005	-21.760017	102.000015	40	214	86
-123.60004	-18.400024	102.000015	40	214	89
-118.56004	-15.040031	102.00001	40	214	91
-113.52004	-11.680031	102.000015	40	214	94
-108.48004	-8.32003	102.000015	40	214	96
-103.44006	-4.960045	102.00001	40	214	99
-98.40006	-1.6000443	102.000015	40	214	101
-93.36006	1.7599564	102.000015	40	214	104
-88.32007	5.119957	102.000015	40	214	107
-83.28007	8.47995	102.000015	40	214	109
-78.24008	11.839943	102.000015	40	214	112
-73.20009	15.199944	102.000015	40	214	114
-68.16009	18.559944	102.000015	40	214	117
-63.120094	21.91993	102.00001	40	214	119
-58.080093	25.27993	102.000015	40	214	122
-53.040092	28.63993	102.000015	40	214	124
-48.000114	31.999931	102.00001	40	214	127
-42.96009	35.35994	102.00001	40	214	130
-37.92009	38.719933	102.00001	40	214	132
-32.880096	42.079933	102.00001	40	214	135
-27.840096	45.439926	102.00001	40	214	137
-22.800102	48.799923	102.00001	40	214	140
-17.760117	52.159924	102.00001	40	214	142
-12.720116	55.51992	102.00001	40	214	145
-7.6801224	58.879913	102.00001	40	214	147
-2.6401215	62.23991	102.00001	40	214	150
2.3998718	65.599915	102.00001	40	214	152
7.439865	68.95991	102.00001	40	214	155
12.479858	72.3199	102.00001	40	214	158
17.519852	75.6799	102.0	40	214	160
22.55986	79.0399	102.000015	40	214	163
27.599846	82.399895	102.00001	40	214	165
32.63984	85.759895	102.0	40	214	168
37.679848	89.11989	102.000015	40	214	170
42.719833	92.47987	102.00001	40	214	173
47.759827	95.839874	102.00001	40	214	175
52.799828	99.199875	102.000015	40	214	178
57.83982	102.559875	102.00001	40	214	181
62.879814	105.919876	102.00001	40	214	183
67.919815	109.27987	102.000015	40	214	186
72.95981	112.63987	102.00001	40	214	188
77.9998	115.99986	102.00001	40	214	191
83.03979	119.35985	102.0	40	214	193
88.079796	122.71985	102.00001	40	214	196
93.11978	126.07985	102.00001	40	214	198
98.159775	129.43985	102.0	40	214	201
103.19978	132.79985	102.00001	40	214	203
108.23978	136.15985	102.00001	40	214	206
113.27976	139.51984	102.0	40	214	209
118.31976	142.87984	102.00001	40	214	211
123.35976	146.23982	102.00001	40	214	214
128.39975	149.59982	102.00001	40	214	216
133.43976	152.95982	102.00001	40	214	219
138.47974	156.31982	102.00001	40	214	221
143.51973	159.67982	102.00001	40	214	224
148.55974	163.03983	102.00001	40	214	226
153.59973	166.39981	102.00001	40	214	229
158.63972	169.75981	102.00001	40	214	232
163.67973	173.1198	102.00001	40	214	234
168.71971	176.4798	102.00001	40	214	237
173.7597	179.8398	102.00001	40	214	239
178.79971	183.1998	102.00001	40	214	242
183.8397	186.5598	102.00001	40	214	244
188.8797	189.9198	102.00001	40	214	247
193.91971	193.27979	102.00001	40	214	249
198.95969	196.63979	102.00001	40	214	252
203.99968	199.99977	102.00001	40	214	254
204.00002	200.0	102.00001	255	0	0
-300.0	-136.0	102.00001	0	0	255
-300.0	-132.0	99.0	43	211	0
-295.02	-128.68001	99.0	43	211	2
-290.04	-125.36	99.00001	43	211	5
-285.06	-122.04001	99.00001	43	211	7
-280.08	-118.71999	99.0	43	211	10
-275.1	-115.4	98.99999	43	211	12
-270.12	-112.08	99.0	43	211	15
-265.14	-108.76	99.0	43	211	17
-260.16	-105.44	99.0	43	211	20
-255.18001	-102.12	99.0	43	211	22
-250.2	-98.8	99.00001	43	211	25
-245.22	-95.479996	99.0	43	211	28
-240.24	-92.16	99.0	43	211	30
-235.26001	-88.84001	98.99999	43	211	33
-230.28	-85.520004	99.0	43	211	35
-225.3	-82.200005	99.0	43	211	38
-220.32002	-78.880005	99.0	43	211	40
-215.34	-75.56	99.0	43	211	43
-210.36	-72.24	99.0	43	211	45
-205.38	-68.92	99.0	43	211	48
-200.39998	-65.59999	99.0	43	211	51
-195.41998	-62.279995	99.0	43	211	53
-190.43997	-58.95999	99.0	43	211	56
-185.45999	-55.63999	99.0	43	211	58
-180.48	-52.319992	99.0	43	211	61
-175.5	-48.999992	99.0	43	211	63
-170.51999	-45.679996	99.0	43	211	66
-165.54	-42.359997	99.00001	43	211	68
-160.56001	-39.04	99.00001	43	211	71
-155.58002	-35.72	99.0	43	211	73
-150.60002	-32.400013	99.0	43	211	76
-145.62003	-29.080013	99.0	43	211	79
-140.64001	-25.760017	99.0	43	211	81
-135.66003	-22.440018	99.0	43	211	84
-130.68004	-19.120018	99.00001	43	211	86
-125.70004	-15.800026	99.0	43	211	89
-120.72005	-12.480026	99.0	43	211	91
-115.74004	-9.160034	99.0	43	211	94
-110.76005	-5.8400345	99.0	43	211	96
-105.78007	-2.5200424	99.0	43	211	99
-100.80007	0.7999573	99.0	43	211	101
-95.82007	4.119957	99.0	43	211	104
-90.84007	7.4399567	99.0	43	211	107
-85.86008	10.759949	99.0	43	211	109
-80.88009	14.079948	99.0	43	211	112
-75.90009	17.399948	99.0	43	211	114
-70.9201	20.71994	99.0	43	211	117
-65.940094	24.039932	99.0	43	211	119
-60.9601	27.359932	99.0	43	211	122
-55.980103	30.679932	99.0	43	211	124
-51.000114	33.99993	99.0	43	211	127
-46.020096	37.31994	99.0	43	211	130
-41.0401	40.639935	99.0	43	211	132
-36.060104	43.959934	99.0	43	211	135
-31.080101	47.279926	99.0	43	211	137
-26.100105	50.599926	99.0	43	211	140
-21.120125	53.91992	99.0	43	211	142
-16.140121	57.23992	99.0	43	211	145
-11.160126	60.559914	99.0	43	211	147
-6.18013	63.879913	99.0	43	211	150
-1.2001419	67.199905	99.0	43	211	152
3.7798615	70.51991	99.0	43	211	155
8.75985	73.839905	99.0	43	211	158
13.739845	77.1599	99.0	43	211	160
18.719849	80.4799	99.0	43	211	163
23.699837	83.7999	99.0	43	211	165
28.679832	87.119896	99.0	43	211	168
33.65983	90.439896	99.0	43	211	170
38.639816	93.75987	99.0	43	211	173
43.619827	97.07988	99.0	43	211	175
48.599815	100.39987	99.0	43	211	178
53.57981	103.71988	99.0	43	211	181
58.559807	107.03987	99.0	43	211	183
63.539795	110.35987	99.0	43	211	186
68.51979	113.67987	99.0	43	211	188
73.4998	116.99987	99.0	43	211	191
78.47979	120.319855	99.0	43	211	193
83.459785	123.63985	99.0	43	211	196
88.43977	126.959854	99.0	43	211	198
93.41977	130.27985	99.0	43	211	201
98.399765	133.59985	99.0	43	211	203
103.379776	136.91985	99.0	43	211	206
108.359764	140.23984	99.0	43	211	209
113.33975	143.55984	99.0	43	211	211
118.31975	146.87982	99.0	43	211	214
123.29974	150.19983	99.0	43	211	216
128.27974	153.51982	99.0	43	211	219
133.25974	156.83983	99.0	43	211	221
138.23973	160.15982	99.0	43	211	224
143.21973	163.47983	99.0	43	211	226
148.19972	166.79982	99.0	43	211	229
153.17972	170.11981	99.0	43	211	232
158.15971	173.4398	99.0	43	211	234
163.1397	176.7598	99.0	43	211	237
168.1197	180.0798	99.0	43	211	239
173.0997	183.3998	99.0	43	211	242
178.0797	186.7198	99.0	43	211	244
183.0597	190.0398	99.0	43	211	247
188.03967	193.35979	99.0	43	211	249
193.01967	196.6798	99.0	43	211	252
197.99966	199.99977	99.0	43	211	254
198.0	200.0	99.0	255	0	0
-300.0	-132.0	99.0	0	0	255
-300.0	-128.0	96.0	45	209	0
-295.08	-124.72	96.0	45	209	2
-290.16	-121.44	96.0	45	209	5
-285.24	-118.16	96.0	45	209	7
-280.32	-114.88	95.99999	45	209	10
-275.4	-111.6	96.0	45	209	12
-270.48	-108.32	96.0	45	209	15
-265.56	-105.04	96.0	45	209	17
-260.64	-101.76	96.0	45	209	20
-255.72	-98.48	96.0	45	209	22
-250.8	-95.200005	96.0	45	209	25
-245.88	-91.92	96.0	45	209	28
-240.96	-88.64	95.99999	45	209	30
-236.04001	-85.36	96.0	45	209	33
-231.12	-82.08	96.0	45	209	35
-226.2	-78.8	96.00001	45	209	38
-221.28001	-75.520004	96.0	45	209	40
-216.36	-72.24	96.0	45	209	43
-211.44	-68.96	96.0	45	209	45
-206.51999	-65.67999	96.0	45	209	48
-201.59998	-62.39999	96.0	45	209	51
-196.67998	-59.11999	96.0	45	209	53
-191.75998	-55.83999	96.0	45	209	56
-186.84	-52.55999	96.0	45	209	58
-181.91998	-49.27999	96.0	45	209	61
-177.0	-45.999992	96.0	45	209	63
-172.07999	-42.719997	96.0	45	209	66
-167.16	-39.44	96.0	45	209	68
-162.24002	-36.160004	96.0	45	209	71
-157.32	-32.880005	96.0	45	209	73
-152.40002	-29.60001	96.0	45	209	76
-147.48001	-26.320011	96.0	45	209	79
-142.56003	-23.040016	96.0	45	209	81
-137.64005	-19.760017	96.0	45	209	84
-132.72003	-16.480019	96.0	45	209	86
-127.80004	-13.200027	96.0	45	209	89
-122.88004	-9.920029	96.0	45	209	91
-117.960045	-6.64003	96.0	45	209	94
-113.04005	-3.3600311	96.0	45	209	96
-108.12006	-0.08003998	96.0	45	209	99
-103.200066	3.1999588	96.0	45	209	101
-98.28007	6.4799576	96.0	45	209	104
-93.36007	9.759956	96.0	45	209	107
-88.44007	13.0399475	96.0	45	209	109
-83.52009	16.319946	96.0	45	209	112
-78.60009	19.599945	96.0	45	209	114
-73.68009	22.879944	96.0	45	209	117
-68.76009	26.159935	96.0	45	209	119
-63.840096	29.439934	96.0	45	209	122
-58.920097	32.719933	96.0	45	209	124
-54.000114	35.99993	96.0	45	209	127
-49.080093	39.279938	96.0	45	209	130
-44.160095	42.559937	96.0	45	209	132
-39.240097	45.839935	96.0	45	209	135
-34.3201	49.119926	96.0	45	209	137
-29.4001	52.399925	96.0	45	209	140
-24.480118	55.679924	96.0	45	209	142
-19.56012	58.959923	96.0	45	209	145
-14.640121	62.239914	96.0	45	209	147
-9.720123	65.51991	96.0	45	209	150
-4.8001328	68.79991	96.0	45	209	152
0.11986542	72.07991	96.0	45	209	155
5.039856	75.3599	96.0	45	209	158
9.959854	78.6399	96.0	45	209	160
14.879852	81.9199	96.0	45	209	163
19.799843	85.1999	96.0	45	209	165
24.719841	88.4799	96.0	45	209	168
29.63984	91.759895	96.0	45	209	170
34.55983	95.03988	96.0	45	209	173
39.479828	98.31988	96.0	45	209	175
44.39982	101.59988	96.0	45	209	178
49.319817	104.879875	96.0	45	209	181
54.239815	108.159874	96.0	45	209	183
59.159805	111.43987	96.0	45	209	186
64.0798	114.71987	96.0	45	209	188
68.9998	117.99987	96.0	45	209	191
73.91979	121.279854	96.0	45	209	193
78.83979	124.55985	96.0	45	209	196
83.75978	127.83985	96.0	45	209	198
88.67978	131.11984	96.0	45	209	201
93.59978	134.39984	96.0	45	209	203
98.519775	137.67984	96.0	45	209	206
103.439766	140.95984	96.0	45	209	209
108.35976	144.23984	96.0	45	209	211
113.279755	147.51984	96.0	45	209	214
118.19975	150.79984	96.0	45	209	216
123.11975	154.07983	96.0	45	209	219
128.03973	157.35983	96.0	45	209	221
132.95973	160.63983	96.0	45	209	224
137.87973	163.91983	96.0	45	209	226
142.79973	167.19983	96.0	45	209	229
147.71973	170.47983	96.0	45	209	232
152.63972	173.7598	96.0	45	209	234
157.55971	177.0398	96.0	45	209	237
162.4797	180.3198	96.0	45	209	239
167.3997	183.5998	96.0	45	209	242
172.3197	186.87979	96.0	45	209	244
177.2397	190.15979	96.0	45	209	247
182.1597	193.43979	96.0	45	209	249
187.07968	196.71979	96.0	45	209	252
191.99968	199.99979	96.0	45	209	254
192.0	200.0	96.0	255	0	0
-300.0	-128.0	96.0	0	0	255
-300.0	-124.0	93.0	48	206	0
-295.14	-120.76	93.0	48	206	2
-290.28	-117.520004	93.0	48	206	5
-285.42	-114.28001	93.0	48	206	7
-280.56	-111.04	93.0	48	206	10
-275.7	-107.799995	93.0	48	206	12
-270.84	-104.56	93.0	48	206	15
-265.98	-101.32	93.0	48	206	17
-261.12	-98.08	93.00001	48	206	20
-256.26	-94.840004	93.0	48	206	22
-251.40001	-91.600006	93.0	48	206	25
-246.54001	-88.36	92.99999	48	206	28
-241.68001	-85.12001	92.99999	48	206	30
-236.82	-81.880005	93.0	48	206	33
-231.96	-78.64	93.0	48	206	35
-227.1	-75.4	93.0	48	206	38
-222.24002	-72.16	93.0	48	206	40
-217.38	-68.92	92.99999	48	206	43
-212.52	-65.68	93.0	48	206	45
-207.66	-62.44	93.0	48	206	48
-202.79999	-59.199993	93.0	48	206	51
-197.93997	-55.959988	93.0	48	206	53
-193.07999	-52.719986	93.0	48	206	56
-188.22	-49.47999	93.0	48	206	58
-183.35999	-46.23999	93.0	48	206	61
-178.5	-42.999992	93.0	48	206	63
-173.64	-39.76	93.0	48	206	66
-168.78	-36.52	93.0	48	206	68
-163.92001	-33.280006	93.0	48	206	71
-159.06001	-30.040009	93.00001	48	206	73
-154.20001	-26.800007	93.0	48	206	76
-149.34003	-23.560009	93.0	48	206	79
-144.48003	-20.320015	93.0	48	206	81
-139.62004	-17.080017	93.0	48	206	84
-134.76004	-13.840019	93.0	48	206	86
-129.90004	-10.600029	93.0	48	206	89
-125.04005	-7.360031	93.0	48	206	91
-120.180046	-4.1200256	93.0	48	206	94
-115.320045	-0.8800278	93.0	48	206	96
-110.46007	2.3599625	93.0	48	206	99
-105.60007	5.5999603	93.0	48	206	101
-100.74007	8.839958	93.0	48	206	104
-95.88007	12.079956	93.0	48	206	107
-91.02007	15.319946	93.0	48	206	109
-86.16009	18.559944	93.0	48	206	112
-81.300095	21.799942	93.0	48	206	114
-76.440094	25.039948	93.0	48	206	117
-71.58009	28.279938	93.0	48	206	119
-66.72009	31.519936	93.0	48	206	122
-61.8601	34.759933	93.0	48	206	124
-57.000114	37.99993	93.0	48	206	127
-52.1401	41.239937	93.0	48	206	130
-47.280098	44.47994	93.0	48	206	132
-42.420097	47.719936	93.0	48	206	135
-37.560104	50.959927	93.0	48	206	137
-32.700104	54.199924	93.0	48	206	140
-27.840118	57.439926	93.0	48	206	142
-22.980125	60.679924	93.0	48	206	145
-18.120125	63.919914	93.0	48	206	147
-13.260124	67.15991	93.0	48	206	150
-8.400131	70.39992	93.0	48	206	152
-3.5401382	73.63991	93.0	48	206	155
1.3198547	76.8799	93.0	48	206	158
6.1798553	80.1199	93.0	48	206	160
11.039848	83.3599	93.0	48	206	163
15.899841	86.5999	93.0	48	206	165
20.759842	89.8399	93.0	48	206	168
25.619835	93.079895	93.0	48	206	170
30.479828	96.319885	93.0	48	206	173
35.33983	99.559875	93.0	48	206	175
40.19982	102.79988	93.0	48	206	178
45.059822	106.03987	93.0	48	206	181
49.919807	109.27988	93.0	48	206	183
54.7798	112.519875	93.0	48	206	186
59.6398	115.75987	93.0	48	206	188
64.4998	118.99987	93.0	48	206	191
69.359795	122.23985	93.0	48	206	193
74.219795	125.47986	93.0	48	206	196
79.07977	128.71985	93.0	48	206	198
83.93977	131.95985	93.0	48	206	201
88.799774	135.19984	93.0	48	206	203
93.659775	138.43985	93.0	48	206	206
98.51977	141.67984	93.0	48	206	209
103.37976	144.91985	93.0	48	206	211
108.23976	148.15984	93.0	48	206	214
113.09975	151.39983	93.0	48	206	216
117.95975	154.63983	93.0	48	206	219
122.81974	157.87982	93.0	48	206	221
127.67973	161.11983	93.0	48	206	224
132.53973	164.35983	93.0	48	206	226
137.39973	167.59982	93.0	48	206	229
142.25972	170.83983	93.0	48	206	232
147.11972	174.0798	93.0	48	206	234
151.9797	177.31981	93.0	48	206	237
156.8397	180.5598	93.0	48	206	239
161.6997	183.7998	93.0	48	206	242
166.55971	187.0398	93.0	48	206	244
171.4197	190.2798	93.0	48	206	247
176.2797	193.5198	93.0	48	206	249
181.13968	196.7598	93.0	48	206	252
185.99968	199.99979	93.0	48	206	254
186.0	200.0	93.0	255	0	0
-300.0	-124.0	93.0	0	0	255
-300.0	-119.999985	89.99999	51	203	0
-295.2	-116.79999	89.99999	51	203	2
-290.4	-113.59999	90.0	51	203	5
-285.6	-110.39999	89.99999	51	203	7
-280.8	-107.19998	89.99999	51	203	10
-276.0	-103.999985	89.99999	51	203	12
-271.2	-100.79999	89.99999	51	203	15
-266.4	-97.59998	89.99999	51	203	17
-261.6	-94.39999	89.99999	51	203	20
-256.8	-91.2	89.99999	51	203	22
-252.0	-88.0	90.0	51	203	25
-247.20001	-84.799995	89.999985	51	203	28
-242.40001	-81.59999	89.999985	51	203	30
-237.6	-78.399994	89.99999	51	203	33
-232.8	-75.2	89.99999	51	203	35
-228.0	-72.0	89.99999	51	203	38
-223.20001	-68.79999	90.0	51	203	40
-218.4	-65.59999	89.999985	51	203	43
-213.6	-62.399986	89.99999	51	203	45
-208.8	-59.19999	89.99999	51	203	48
-203.99998	-55.999985	89.99999	51	203	51
-199.19998	-52.79998	89.99999	51	203	53
-194.39998	-49.59998	89.99999	51	203	56
-189.6	-46.399982	90.0	51	203	58
-184.79999	-43.199986	90.0	51	203	61
-180.0	-39.99998	89.99999	51	203	63
-175.2	-36.799988	90.0	51	203	66
-170.4	-33.599995	90.0	51	203	68
-165.60002	-30.399998	89.99999	51	203	71
-160.80002	-27.200005	89.99999	51	203	73
-156.00003	-24.0	90.0	51	203	76
-151.20003	-20.800007	89.99999	51	203	79
-146.40002	-17.60001	89.99999	51	203	81
-141.60004	-14.400017	90.0	51	203	84
-136.80005	-11.200012	89.99999	51	203	86
-132.00005	-8.000015	90.0	51	203	89
-127.20005	-4.800026	90.0	51	203	91
-122.400055	-1.600029	89.99999	51	203	94
-117.60005	1.599968	90.0	51	203	96
-112.80007	4.7999725	90.0	51	203	99
-108.00007	7.999962	90.0	51	203	101
-103.20007	11.199959	90.0	51	203	104
-98.40008	14.399956	89.99999	51	203	107
-93.600075	17.599953	90.0	51	203	109
-88.800095	20.79995	90.0	51	203	112
-84.0001	23.999947	89.99999	51	203	114
-79.200096	27.199944	90.0	51	203	117
-74.4001	30.399937	90.0	51	203	119
-69.600105	33.599937	89.99999	51	203	122
-64.8001	36.799934	90.0	51	203	124
-60.000122	39.999935	90.0	51	203	127
-55.200104	43.19994	89.99999	51	203	130
-50.40011	46.399937	89.99999	51	203	132
-45.600105	49.599937	89.99999	51	203	135
-40.80011	52.799927	89.99999	51	203	137
-36.000107	55.999928	89.99999	51	203	140
-31.200127	59.199924	89.99999	51	203	142
-26.400131	62.399918	89.99999	51	203	145
-21.600128	65.599915	89.99999	51	203	147
-16.800133	68.79991	89.99999	51	203	150
-12.000145	71.99991	89.99999	51	203	152
-7.200142	75.199905	89.99999	51	203	155
-2.400154	78.3999	89.99999	51	203	158
2.3998413	81.5999	89.99999	51	203	160
7.1998444	84.7999	89.99999	51	203	163
11.999832	87.99989	89.99999	51	203	165
16.799828	91.19989	89.99999	51	203	168
21.59983	94.39989	89.99999	51	203	170
26.399818	97.599884	89.99999	51	203	173
31.199821	100.79988	89.99999	51	203	175
35.99981	103.99987	89.99999	51	203	178
40.799805	107.19987	89.99999	51	203	181
45.5998	110.399864	89.99999	51	203	183
50.399796	113.59987	89.99999	51	203	186
55.1998	116.799866	89.99999	51	203	188
59.999786	119.99986	89.99999	51	203	191
64.79978	123.19986	89.99999	51	203	193
69.599785	126.39986	89.99999	51	203	196
74.399765	129.59984	89.99999	51	203	198
79.19977	132.79984	89.99999	51	203	201
83.99977	135.99985	89.99999	51	203	203
88.79976	139.19984	89.999985	51	203	206
93.599754	142.39984	89.99999	51	203	209
98.39975	145.59984	89.99999	51	203	211
103.19974	148.79984	89.99999	51	203	214
107.99974	151.99982	89.99999	51	203	216
112.79974	155.19981	89.99999	51	203	219
117.599724	158.39981	89.999985	51	203	221
122.39972	161.59981	89.99999	51	203	224
127.19972	164.79982	89.99999	51	203	226
131.99971	167.99982	89.999985	51	203	229
136.79971	171.19981	89.99999	51	203	232
141.59972	174.3998	89.99999	51	203	234
146.3997	177.5998	90.0	51	203	237
151.19969	180.79979	89.99999	51	203	239
155.9997	183.99979	89.99999	51	203	242
160.7997	187.19978	89.99999	51	203	244
165.59969	190.39978	89.99999	51	203	247
170.39969	193.5998	89.99999	51	203	249
175.19968	196.79979	89.99999	51	203	252
179.99966	199.99977	89.99999	51	203	254
179.99998	199.99998	89.99999	255	0	0
-300.0	-119.999985	89.99999	0	0	255
-300.0	-116.0	86.999985	53	201	0
-295.26	-112.840004	86.999985	53	201	2
-290.52	-109.68	86.999985	53	201	5
-285.78	-106.520004	86.999985	53	201	7
-281.04	-103.36	86.99998	53	201	10
-276.3	-100.2	86.999985	53	201	12
-271.56	-97.04	86.999985	53	201	15
-266.82	-93.88	86.999985	53	201	17
-262.08002	-90.72	86.999985	53	201	20
-257.34	-87.560005	86.999985	53	201	22
-252.6	-84.4	86.999985	53	201	25
-247.86	-81.240005	86.999985	53	201	28
-243.12001	-78.08	86.999985	53	201	30
-238.38	-74.92	86.999985	53	201	33
-233.64001	-71.76001	86.999985	53	201	35
-228.90001	-68.600006	86.999985	53	201	38
-224.16002	-65.44	86.999985	53	201	40
-219.42001	-62.28	86.999985	53	201	43
-214.68001	-59.120003	86.999985	53	201	45
-209.94	-55.959995	86.999985	53	201	48
-205.19998	-52.79999	86.999985	53	201	51
-200.45999	-49.639996	86.999985	53	201	53
-195.71999	-46.47999	86.999985	53	201	56
-190.98	-43.319992	86.99999	53	201	58
-186.24	-40.15999	86.999985	53	201	61
-181.5	-36.999992	86.999985	53	201	63
-176.76001	-33.84	86.999985	53	201	66
-172.02	-30.679996	86.999985	53	201	68
-167.28003	-27.520004	86.999985	53	201	71
-162.54002	-24.36	86.999985	53	201	73
-157.80002	-21.200008	86.999985	53	201	76
-153.06003	-18.040012	86.999985	53	201	79
-148.32004	-14.8800125	86.999985	53	201	81
-143.58005	-11.7200165	86.999985	53	201	84
-138.84006	-8.56002	86.999985	53	201	86
-134.10005	-5.4000244	86.999985	53	201	89
-129.36005	-2.2400284	86.999985	53	201	91
-124.620056	0.91996765	86.999985	53	201	94
-119.88006	4.0799713	86.999985	53	201	96
-115.140076	7.2399597	86.999985	53	201	99
-110.40008	10.399963	86.999985	53	201	101
-105.66008	13.559959	86.999985	53	201	104
-100.92008	16.719955	86.999985	53	201	107
-96.180084	19.879951	86.999985	53	201	109
-91.4401	23.039948	86.999985	53	201	112
-86.7001	26.199947	86.999985	53	201	114
-81.960106	29.359947	86.999985	53	201	117
-77.22011	32.519936	86.999985	53	201	119
-72.48011	35.679935	86.999985	53	201	122
-67.74011	38.839935	86.999985	53	201	124
-63.00013	41.999935	86.999985	53	201	127
-58.26011	45.15994	86.999985	53	201	130
-53.52011	48.31994	86.999985	53	201	132
-48.780113	51.47994	86.999985	53	201	135
-44.040115	54.63993	86.999985	53	201	137
-39.300117	57.799927	86.999985	53	201	140
-34.560135	60.959927	86.999985	53	201	142
-29.820137	64.11993	86.999985	53	201	145
-25.08014	67.27992	86.999985	53	201	147
-20.340141	70.43991	86.999985	53	201	150
-15.600151	73.599915	86.999985	53	201	152
-10.860153	76.75992	86.999985	53	201	155
-6.120163	79.91991	86.999985	53	201	158
-1.3801651	83.0799	86.999985	53	201	160
3.3598328	86.2399	86.999985	53	201	163
8.099823	89.3999	86.999985	53	201	165
12.839821	92.559906	86.999985	53	201	168
17.579819	95.719894	86.999985	53	201	170
22.319809	98.87988	86.999985	53	201	173
27.059807	102.03989	86.999985	53	201	175
31.799797	105.19988	86.999985	53	201	178
36.539795	108.35988	86.999985	53	201	181
41.279793	111.51988	86.999985	53	201	183
46.019783	114.67988	86.999985	53	201	186
50.75978	117.839874	86.999985	53	201	188
55.499786	120.99988	86.999985	53	201	191
60.23977	124.15986	86.999985	53	201	193
64.979774	127.319855	86.999985	53	201	196
69.71976	130.47986	86.999985	53	201	198
74.45976	133.63986	86.999985	53	201	201
79.19975	136.79985	86.999985	53	201	203
83.93976	139.95985	86.999985	53	201	206
88.67974	143.11986	86.999985	53	201	209
93.41974	146.27985	86.999985	53	201	211
98.15973	149.43983	86.999985	53	201	214
102.899734	152.59984	86.999985	53	201	216
107.639725	155.75983	86.999985	53	201	219
112.37972	158.91983	86.999985	53	201	221
117.119705	162.07983	86.999985	53	201	224
121.85971	165.23982	86.999985	53	201	226
126.5997	168.39983	86.999985	53	201	229
131.3397	171.55983	86.999985	53	201	232
136.0797	174.71982	86.999985	53	201	234
140.81969	177.8798	86.999985	53	201	237
145.55968	181.03981	86.999985	53	201	239
150.29968	184.19981	86.999985	53	201	242
155.03967	187.3598	86.999985	53	201	244
159.77968	190.5198	86.999985	53	201	247
164.51968	193.67981	86.999985	53	201	249
169.25966	196.8398	86.999985	53	201	252
173.99966	199.99979	86.999985	53	201	254
173.99997	200.0	86.999985	255	0	0
-300.0	-116.0	86.999985	0	0	255
-300.0	-111.99999	83.999985	56	198	0
-295.32	-108.88	83.999985	56	198	2
-290.64	-105.759995	83.999985	56	198	5
-285.96	-102.64	83.999985	56	198	7
-281.28	-99.51999	83.999985	56	198	10
-276.6	-96.399994	83.999985	56	198	12
-271.92	-93.27999	83.999985	56	198	15
-267.24	-90.159996	83.999985	56	198	17
-262.56	-87.03999	83.99999	56	198	20
-257.88	-83.92	83.999985	56	198	22
-253.20001	-80.799995	83.999985	56	198	25
-248.52	-77.67999	83.999985	56	198	28
-243.84001	-74.56	83.99998	56	198	30
-239.16	-71.44	83.999985	56	198	33
-234.48001	-68.31999	83.999985	56	198	35
-229.8	-65.2	83.999985	56	198	38
-225.12003	-62.079994	83.999985	56	198	40
-220.44	-58.95999	83.999985	56	198	43
-215.76001	-55.839996	83.999985	56	198	45
-211.08	-52.71999	83.999985	56	198	48
-206.4	-49.599987	83.999985	56	198	51
-201.71999	-46.479984	83.999985	56	198	53
-197.03998	-43.359985	83.999985	56	198	56
-192.36	-40.239983	83.999985	56	198	58
-187.68	-37.119987	83.999985	56	198	61
-183.0	-33.999985	83.999985	56	198	63
-178.32	-30.879993	83.999985	56	198	66
