ply
format ascii 1.0
comment
element vertex 1316
property float x
property float y
property float z
property uchar red
property uchar green
property uchar blue
element face 0
property list uchar int vertex_index
end_header
397.67996	294.31992	391.99988	244	10	181
397.75995	294.2399	391.99988	244	10	183
397.83997	294.1599	391.99988	244	10	186
397.91998	294.0799	391.99988	244	10	188
397.99997	293.9999	391.99988	244	10	191
398.07996	293.91992	391.99988	244	10	193
398.15997	293.8399	391.99988	244	10	196
398.23996	293.75992	391.99988	244	10	198
398.31998	293.6799	391.99988	244	10	201
398.39996	293.5999	391.99988	244	10	203
398.47998	293.5199	391.99988	244	10	206
398.56	293.4399	391.99988	244	10	209
398.63998	293.3599	391.99988	244	10	211
398.71997	293.2799	391.99988	244	10	214
398.79996	293.1999	391.99988	244	10	216
398.87997	293.1199	391.99988	244	10	219
398.96	293.0399	391.99988	244	10	221
399.03998	292.9599	391.99988	244	10	224
399.12	292.87988	391.99988	244	10	226
399.19998	292.79987	391.99988	244	10	229
399.28	292.7199	391.99988	244	10	232
399.36	292.6399	391.99988	244	10	234
399.43997	292.5599	391.99988	244	10	237
399.52	292.4799	391.99988	244	10	239
399.59998	292.3999	391.99988	244	10	242
399.68	292.3199	391.99988	244	10	244
399.76	292.23987	391.99988	244	10	247
399.84	292.15988	391.99988	244	10	249
399.92	292.07986	391.99988	244	10	252
399.99997	291.99988	391.99988	244	10	254
400.0	291.99988	391.99988	255	0	0
391.99988	300.0	391.99988	0	0	255
393.99988	300.0	393.99988	247	7	0
394.05988	299.94	393.99988	247	7	2
394.11987	299.88	393.99988	247	7	5
394.1799	299.82	393.9999	247	7	7
394.23987	299.76	393.99988	247	7	10
394.29987	299.69998	393.99985	247	7	12
394.3599	299.63998	393.99988	247	7	15
394.4199	299.58	393.99988	247	7	17
394.4799	299.52	393.99988	247	7	20
394.5399	299.46	393.99988	247	7	22
394.5999	299.4	393.9999	247	7	25
394.65988	299.33997	393.99988	247	7	28
394.71988	299.27997	393.99985	247	7	30
394.7799	299.21997	393.99988	247	7	33
394.8399	299.15997	393.99988	247	7	35
394.8999	299.09998	393.99988	247	7	38
394.9599	299.03998	393.99988	247	7	40
395.0199	298.97998	393.99988	247	7	43
395.0799	298.91998	393.99988	247	7	45
395.1399	298.86	393.99988	247	7	48
395.1999	298.79996	393.99988	247	7	51
395.2599	298.73996	393.99988	247	7	53
395.3199	298.67996	393.99988	247	7	56
395.37994	298.62	393.9999	247	7	58
395.43994	298.56	393.9999	247	7	61
395.49994	298.49997	393.99988	247	7	63
395.5599	298.43997	393.99988	247	7	66
395.6199	298.37997	393.99988	247	7	68
395.67993	298.31998	393.9999	247	7	71
395.73993	298.25998	393.99988	247	7	73
395.79993	298.19998	393.99988	247	7	76
395.85992	298.13995	393.99988	247	7	79
395.91992	298.07996	393.9999	247	7	81
395.97992	298.01996	393.99988	247	7	84
396.03992	297.95996	393.99988	247	7	86
396.0999	297.89996	393.99988	247	7	89
396.1599	297.83997	393.99988	247	7	91
396.21994	297.77997	393.99988	247	7	94
396.27994	297.71997	393.99988	247	7	96
396.33994	297.65997	393.99988	247	7	99
396.39993	297.59998	393.99988	247	7	101
396.45996	297.53998	393.99988	247	7	104
396.51996	297.47995	393.99988	247	7	107
396.57996	297.41995	393.99988	247	7	109
396.63995	297.36	393.99988	247	7	112
396.69995	297.29996	393.99988	247	7	114
396.75995	297.23996	393.99988	247	7	117
396.81995	297.17993	393.99988	247	7	119
396.87994	297.11993	393.99988	247	7	122
396.93994	297.05994	393.99988	247	7	124
396.99994	296.99994	393.99988	247	7	127
397.05994	296.93994	393.99988	247	7	130
397.11993	296.87994	393.99988	247	7	132
397.17993	296.81995	393.99988	247	7	135
397.23993	296.75995	393.99988	247	7	137
397.29993	296.69992	393.99988	247	7	140
397.35995	296.63995	393.99988	247	7	142
397.41995	296.57996	393.99988	247	7	145
397.47995	296.51993	393.99988	247	7	147
397.53995	296.45993	393.99988	247	7	150
397.59995	296.39993	393.99988	247	7	152
397.65997	296.33994	393.99988	247	7	155
397.71994	296.2799	393.99988	247	7	158
397.77997	296.2199	393.99988	247	7	160
397.83997	296.1599	393.99988	247	7	163
397.89996	296.0999	393.99988	247	7	165
397.95996	296.03992	393.99988	247	7	168
398.01996	295.97992	393.99988	247	7	170
398.07996	295.91992	393.99988	247	7	173
398.13995	295.85992	393.99988	247	7	175
398.19995	295.79993	393.99988	247	7	178
398.25995	295.73993	393.99988	247	7	181
398.31998	295.6799	393.99988	247	7	183
398.37997	295.61993	393.99988	247	7	186
398.43997	295.5599	393.99988	247	7	188
398.5	295.4999	393.99988	247	7	191
398.55997	295.4399	393.99988	247	7	193
398.61996	295.3799	393.99988	247	7	196
398.67996	295.31992	393.99988	247	7	198
398.73996	295.2599	393.99988	247	7	201
398.8	295.19992	393.99988	247	7	203
398.86	295.1399	393.99988	247	7	206
398.91998	295.0799	393.99988	247	7	209
398.97998	295.0199	393.99988	247	7	211
399.03998	294.9599	393.99988	247	7	214
399.09998	294.8999	393.99988	247	7	216
399.15997	294.8399	393.99988	247	7	219
399.21997	294.7799	393.99988	247	7	221
399.27997	294.71988	393.99988	247	7	224
399.34	294.65988	393.99988	247	7	226
399.4	294.5999	393.99988	247	7	229
399.46	294.53992	393.99988	247	7	232
399.51996	294.4799	393.99988	247	7	234
399.58	294.4199	393.99988	247	7	237
399.63998	294.3599	393.99988	247	7	239
399.69998	294.2999	393.99988	247	7	242
399.76	294.2399	393.99988	247	7	244
399.82	294.17987	393.99988	247	7	247
399.88	294.11987	393.99988	247	7	249
399.94	294.05988	393.99988	247	7	252
399.99997	293.99988	393.99988	247	7	254
400.0	293.99988	393.99988	255	0	0
393.99988	300.0	393.99988	0	0	255
395.99988	300.0	395.99988	249	5	0
396.0399	299.96	395.99988	249	5	2
396.0799	299.91998	395.99988	249	5	5
396.1199	299.88	395.9999	249	5	7
396.15988	299.84	395.99988	249	5	10
396.1999	299.8	395.99988	249	5	12
396.2399	299.75998	395.99988	249	5	15
396.27988	299.72	395.99988	249	5	17
396.3199	299.68	395.99988	249	5	20
396.3599	299.63998	395.99988	249	5	22
396.3999	299.59998	395.99988	249	5	25
396.43988	299.56	395.99988	249	5	28
396.4799	299.52	395.99988	249	5	30
396.5199	299.47998	395.99988	249	5	33
396.5599	299.43997	395.99988	249	5	35
396.5999	299.39996	395.99988	249	5	38
396.63992	299.36	395.9999	249	5	40
396.6799	299.31998	395.99988	249	5	43
396.7199	299.27997	395.99988	249	5	45
396.7599	299.24	395.99988	249	5	48
396.7999	299.19995	395.99988	249	5	51
396.83987	299.15997	395.99985	249	5	53
396.87988	299.11996	395.99988	249	5	56
396.91992	299.08	395.99988	249	5	58
396.9599	299.03998	395.99988	249	5	61
396.99994	298.99997	395.99988	249	5	63
397.03992	298.95996	395.99988	249	5	66
397.07993	298.91998	395.99988	249	5	68
397.11993	298.87997	395.9999	249	5	71
397.15994	298.83997	395.9999	249	5	73
397.19992	298.8	395.99988	249	5	76
397.23993	298.75998	395.99988	249	5	79
397.2799	298.71997	395.99988	249	5	81
397.31995	298.68	395.99988	249	5	84
397.35992	298.63995	395.99988	249	5	86
397.39993	298.59998	395.99988	249	5	89
397.43994	298.55997	395.99988	249	5	91
397.47992	298.51996	395.99988	249	5	94
397.51996	298.47995	395.99988	249	5	96
397.55994	298.43997	395.99988	249	5	99
397.59995	298.39996	395.99988	249	5	101
397.63995	298.35995	395.99988	249	5	104
397.67993	298.31995	395.99988	249	5	107
397.71994	298.27997	395.99988	249	5	109
397.75995	298.23996	395.99988	249	5	112
397.79993	298.19995	395.99988	249	5	114
397.83997	298.15997	395.99988	249	5	117
397.87994	298.11993	395.99988	249	5	119
397.91995	298.07996	395.99988	249	5	122
397.95996	298.03995	395.99988	249	5	124
397.99994	297.99994	395.99988	249	5	127
398.03992	297.95996	395.99988	249	5	130
398.07996	297.91992	395.99988	249	5	132
398.11993	297.87994	395.99988	249	5	135
398.15994	297.83994	395.99988	249	5	137
398.19995	297.79993	395.99988	249	5	140
398.23993	297.75995	395.99988	249	5	142
398.27997	297.71994	395.99988	249	5	145
398.31995	297.67993	395.99988	249	5	147
398.35995	297.63992	395.99988	249	5	150
398.39996	297.5999	395.99988	249	5	152
398.43994	297.55994	395.99988	249	5	155
398.47995	297.51993	395.99988	249	5	158
398.51996	297.47992	395.99988	249	5	160
398.55994	297.43994	395.99988	249	5	163
398.59998	297.39993	395.99988	249	5	165
398.63995	297.35992	395.99988	249	5	168
398.68	297.31992	395.99988	249	5	170
398.71994	297.2799	395.99988	249	5	173
398.75995	297.23993	395.99988	249	5	175
398.79996	297.19992	395.99988	249	5	178
398.83997	297.1599	395.99988	249	5	181
398.87997	297.1199	395.99988	249	5	183
398.91998	297.0799	395.99988	249	5	186
398.95996	297.03992	395.99988	249	5	188
399.0	296.9999	395.99988	249	5	191
399.03995	296.9599	395.99988	249	5	193
399.07996	296.9199	395.99988	249	5	196
399.11996	296.8799	395.99988	249	5	198
399.15997	296.8399	395.99988	249	5	201
399.19998	296.7999	395.99988	249	5	203
399.24	296.75992	395.99988	249	5	206
399.27997	296.7199	395.99988	249	5	209
399.32	296.6799	395.99988	249	5	211
399.35995	296.6399	395.99988	249	5	214
399.39996	296.5999	395.99988	249	5	216
399.43997	296.5599	395.99988	249	5	219
399.47998	296.5199	395.99988	249	5	221
399.52	296.4799	395.99988	249	5	224
399.56	296.43988	395.99988	249	5	226
399.6	296.3999	395.99988	249	5	229
399.64	296.3599	395.99988	249	5	232
399.67996	296.3199	395.99988	249	5	234
399.71997	296.2799	395.99988	249	5	237
399.75998	296.2399	395.99988	249	5	239
399.8	296.1999	395.99988	249	5	242
399.84	296.15988	395.99988	249	5	244
399.88	296.11987	395.99988	249	5	247
399.92	296.07986	395.99988	249	5	249
399.96002	296.03986	395.99988	249	5	252
400.0	295.99988	395.99988	249	5	254
400.0	295.99988	395.99988	255	0	0
395.99988	300.0	395.99988	0	0	255
397.99988	300.0	397.99988	252	2	0
398.0199	299.98	397.9999	252	2	2
398.0399	299.96	397.99988	252	2	5
398.0599	299.94	397.9999	252	2	7
398.07986	299.91998	397.99985	252	2	10
398.09988	299.9	397.99988	252	2	12
398.11987	299.88	397.99988	252	2	15
398.1399	299.86	397.99988	252	2	17
398.15988	299.84	397.99988	252	2	20
398.1799	299.81998	397.99988	252	2	22
398.1999	299.8	397.99988	252	2	25
398.21988	299.77997	397.99985	252	2	28
398.2399	299.75998	397.99988	252	2	30
398.2599	299.74	397.99988	252	2	33
398.2799	299.71997	397.99988	252	2	35
398.2999	299.69998	397.99988	252	2	38
398.31992	299.68	397.99988	252	2	40
398.3399	299.65997	397.99988	252	2	43
398.3599	299.63998	397.99988	252	2	45
398.3799	299.62	397.99988	252	2	48
398.39987	299.59998	397.99985	252	2	51
398.4199	299.57996	397.99988	252	2	53
398.43988	299.55997	397.99988	252	2	56
398.4599	299.53998	397.99988	252	2	58
398.47992	299.52	397.99988	252	2	61
398.49994	299.49997	397.99988	252	2	63
398.51993	299.47998	397.9999	252	2	66
398.53992	299.45996	397.99988	252	2	68
398.55994	299.43997	397.9999	252	2	71
398.57993	299.41998	397.99988	252	2	73
398.59995	299.39996	397.9999	252	2	76
398.61993	299.37997	397.99988	252	2	79
398.63995	299.35995	397.9999	252	2	81
398.6599	299.33997	397.99988	252	2	84
398.67993	299.31998	397.99988	252	2	86
398.69992	299.29996	397.99988	252	2	89
398.71994	299.27997	397.99988	252	2	91
398.73993	299.25995	397.99988	252	2	94
398.75995	299.23996	397.99988	252	2	96
398.77994	299.21997	397.99988	252	2	99
398.79993	299.19995	397.99988	252	2	101
398.81995	299.17996	397.99988	252	2	104
398.83997	299.15997	397.99988	252	2	107
398.85992	299.13995	397.99988	252	2	109
398.87994	299.11996	397.99988	252	2	112
398.89996	299.09998	397.99988	252	2	114
398.91995	299.07996	397.99988	252	2	117
398.93994	299.05994	397.99988	252	2	119
398.95996	299.03995	397.99988	252	2	122
398.97995	299.01996	397.99988	252	2	124
398.99994	298.99994	397.99988	252	2	127
399.01996	298.97995	397.99988	252	2	130
399.03995	298.95996	397.99988	252	2	132
399.05994	298.93994	397.99988	252	2	135
399.07996	298.91992	397.99988	252	2	137
399.09995	298.89993	397.99988	252	2	140
399.11993	298.87994	397.99988	252	2	142
399.13995	298.85992	397.99988	252	2	145
399.15994	298.83994	397.99988	252	2	147
399.17993	298.81995	397.99988	252	2	150
399.19995	298.79993	397.99988	252	2	152
399.21997	298.77994	397.99988	252	2	155
399.23993	298.75995	397.99988	252	2	158
399.25995	298.73993	397.99988	252	2	160
399.27997	298.7199	397.99988	252	2	163
399.29996	298.69992	397.99988	252	2	165
399.31995	298.67993	397.99988	252	2	168
399.33997	298.6599	397.99988	252	2	170
399.35995	298.63992	397.99988	252	2	173
399.37994	298.61993	397.99988	252	2	175
399.39996	298.5999	397.99988	252	2	178
399.41995	298.57993	397.99988	252	2	181
399.43997	298.5599	397.99988	252	2	183
399.45996	298.53992	397.99988	252	2	186
399.47998	298.5199	397.99988	252	2	188
399.5	298.4999	397.99988	252	2	191
399.51996	298.47992	397.99988	252	2	193
399.53998	298.4599	397.99988	252	2	196
399.55997	298.4399	397.99988	252	2	198
399.57996	298.41992	397.99988	252	2	201
399.59998	298.3999	397.99988	252	2	203
399.62	298.3799	397.99988	252	2	206
399.63998	298.3599	397.99988	252	2	209
399.66	298.3399	397.99988	252	2	211
399.67996	298.3199	397.99988	252	2	214
399.69998	298.2999	397.99988	252	2	216
399.71997	298.2799	397.99988	252	2	219
399.74	298.2599	397.99988	252	2	221
399.75998	298.2399	397.99988	252	2	224
399.78	298.21988	397.99988	252	2	226
399.8	298.1999	397.99988	252	2	229
399.82	298.1799	397.99988	252	2	232
399.83997	298.1599	397.99988	252	2	234
399.86	298.1399	397.99988	252	2	237
399.87997	298.1199	397.99988	252	2	239
399.9	298.09988	397.99988	252	2	242
399.91998	298.0799	397.99988	252	2	244
399.94	298.05988	397.99988	252	2	247
399.96002	298.0399	397.99988	252	2	249
399.98	298.01987	397.99988	252	2	252
400.0	297.99988	397.99988	252	2	254
400.0	297.99988	397.99988	255	0	0
397.99988	300.0	397.99988	0	0	255
399.99988	300.0	399.99988	254	0	0
399.99988	300.0	399.99988	254	0	2
399.99988	300.0	399.99988	254	0	5
399.99988	300.0	399.99988	254	0	7
399.99988	300.0	399.99988	254	0	10
399.99988	300.0	399.99988	254	0	12
399.99988	300.0	399.99988	254	0	15
399.99988	300.0	399.99988	254	0	17
399.9999	300.0	399.9999	254	0	20
399.9999	300.0	399.99988	254	0	22
399.9999	299.99997	399.99988	254	0	25
399.99988	299.99997	399.99985	254	0	28
399.99988	299.99997	399.99985	254	0	30
399.9999	299.99997	399.99988	254	0	33
399.9999	299.99997	399.99988	254	0	35
399.9999	299.99997	399.99988	254	0	38
399.9999	300.0	399.99988	254	0	40
399.99988	299.99997	399.99985	254	0	43
399.9999	299.99997	399.99988	254	0	45
399.9999	299.99997	399.99988	254	0	48
399.99988	299.99997	399.99988	254	0	51
399.99988	299.99997	399.99988	254	0	53
399.99994	299.99997	399.99988	254	0	56
399.99994	300.0	399.99988	254	0	58
399.99994	300.0	399.99988	254	0	61
399.99994	299.99997	399.99988	254	0	63
399.9999	299.99997	399.99988	254	0	66
399.9999	299.99997	399.99988	254	0	68
399.9999	300.0	399.99988	254	0	71
399.99994	299.99997	399.9999	254	0	73
399.99994	299.99997	399.99988	254	0	76
399.99994	299.99997	399.99988	254	0	79
399.99994	299.99997	399.99988	254	0	81
399.99994	299.99997	399.99988	254	0	84
399.99994	299.99997	399.99988	254	0	86
399.99994	299.99997	399.99988	254	0	89
399.99994	299.99997	399.99988	254	0	91
399.99994	299.99997	399.99988	254	0	94
399.99994	299.99994	399.99988	254	0	96
399.99994	299.99997	399.99988	254	0	99
399.99994	299.99997	399.99988	254	0	101
399.99994	299.99997	399.99988	254	0	104
399.99994	299.99994	399.99988	254	0	107
399.99994	299.99994	399.99988	254	0	109
399.99994	299.99997	399.99988	254	0	112
399.99994	299.99994	399.99988	254	0	114
399.99994	299.99994	399.99988	254	0	117
399.99994	299.99994	399.99988	254	0	119
399.99994	299.99994	399.99988	254	0	122
399.99994	299.99994	399.99988	254	0	124
399.99994	299.99994	399.99988	254	0	127
399.99994	299.99994	399.99988	254	0	130
399.99994	299.99994	399.99988	254	0	132
399.99994	299.99994	399.99988	254	0	135
399.99994	299.99994	399.99988	254	0	137
399.99994	299.99994	399.99988	254	0	140
399.99994	299.99994	399.99988	254	0	142
399.99994	299.99994	399.99988	254	0	145
399.99994	299.99994	399.99988	254	0	147
399.99994	299.99994	399.99988	254	0	150
399.99994	299.99994	399.99988	254	0	152
399.99994	299.99994	399.99988	254	0	155
399.99994	299.99994	399.99988	254	0	158
399.99994	299.99994	399.99988	254	0	160
399.99994	299.99994	399.99988	254	0	163
399.99997	299.9999	399.99988	254	0	165
399.99997	299.9999	399.99988	254	0	168
399.99997	299.9999	399.99988	254	0	170
399.99994	299.99994	399.99988	254	0	173
399.99994	299.9999	399.99988	254	0	175
399.99997	299.9999	399.99988	254	0	178
399.99997	299.9999	399.99988	254	0	181
399.99997	299.9999	399.99988	254	0	183
399.99997	299.9999	399.99988	254	0	186
399.99997	299.9999	399.99988	254	0	188
400.0	299.9999	399.99988	254	0	191
399.99997	299.9999	399.99988	254	0	193
399.99997	299.9999	399.99988	254	0	196
399.99997	299.9999	399.99988	254	0	198
399.99997	299.9999	399.99988	254	0	201
399.99997	299.9999	399.99988	254	0	203
400.0	299.9999	399.99988	254	0	206
400.0	299.9999	399.99988	254	0	209
400.0	299.9999	399.99988	254	0	211
399.99997	299.99988	399.99988	254	0	214
399.99997	299.99988	399.99988	254	0	216
399.99997	299.99988	399.99988	254	0	219
400.0	299.99988	399.99988	254	0	221
400.0	299.99988	399.99988	254	0	224
400.0	299.99988	399.99988	254	0	226
400.0	299.99988	399.99988	254	0	229
400.0	299.9999	399.99988	254	0	232
399.99997	299.9999	399.99988	254	0	234
399.99997	299.99988	399.99988	254	0	237
400.0	299.99988	399.99988	254	0	239
400.0	299.99988	399.99988	254	0	242
400.0	299.99988	399.99988	254	0	244
400.0	299.99988	399.99988	254	0	247
400.0	299.99988	399.99988	254	0	249
400.0	299.99988	399.99988	254	0	252
400.0	299.99988	399.99988	254	0	254
400.0	299.99988	399.99988	255	0	0
399.99988	300.0	399.99988	0	0	255
200.0	100.0	400.0	0	255	0
202.0	100.0	398.0	0	255	2
204.0	100.0	396.0	0	255	5
206.0	100.0	394.0	0	255	7
208.0	100.0	392.0	0	255	10
210.0	100.0	390.0	0	255	12
212.0	100.0	388.0	0	255	15
214.0	100.0	386.0	0	255	17
216.0	100.0	384.0	0	255	20
218.0	100.0	382.0	0	255	22
220.0	100.0	380.0	0	255	25
222.0	100.0	378.0	0	255	28
224.0	100.0	376.0	0	255	30
226.0	100.0	374.0	0	255	33
228.0	100.0	372.0	0	255	35
230.0	100.0	370.0	0	255	38
232.0	100.0	368.0	0	255	40
234.0	100.0	366.0	0	255	43
236.0	100.0	364.0	0	255	45
238.0	100.0	362.0	0	255	48
240.0	99.99999	359.99997	0	255	51
242.0	100.0	358.0	0	255	53
244.00002	100.0	356.0	0	255	56
246.00002	100.0	354.0	0	255	58
248.00002	100.0	352.0	0	255	61
250.00002	100.0	350.0	0	255	63
252.0	100.0	348.0	0	255	66
254.0	100.0	346.0	0	255	68
256.0	100.0	344.0	0	255	71
258.0	100.0	342.0	0	255	73
260.0	100.00001	340.00003	0	255	76
262.0	100.00001	338.00003	0	255	79
264.0	100.0	336.00003	0	255	81
266.0	100.0	334.00003	0	255	84
268.0	100.0	332.00003	0	255	86
270.0	100.0	330.0	0	255	89
272.0	100.0	328.0	0	255	91
274.0	100.0	326.00003	0	255	94
276.0	100.0	324.00003	0	255	96
278.0	100.0	322.00003	0	255	99
280.0	100.0	320.00003	0	255	101
282.0	100.0	318.00003	0	255	104
284.0	100.0	316.00003	0	255	107
285.99997	100.0	314.00003	0	255	109
287.99997	100.0	312.00006	0	255	112
289.99997	100.0	310.00006	0	255	114
291.99997	100.0	308.00006	0	255	117
293.99997	100.0	306.00006	0	255	119
295.99997	100.0	304.00006	0	255	122
297.99997	100.0	302.00006	0	255	124
299.99997	100.0	300.00006	0	255	127
301.99997	100.0	298.00003	0	255	130
303.99997	100.0	296.00003	0	255	132
305.99997	100.0	294.00003	0	255	135
307.99994	100.0	292.00006	0	255	137
309.99994	100.0	290.00006	0	255	140
311.99994	100.0	288.00006	0	255	142
313.99994	100.0	286.00006	0	255	145
315.99994	100.0	284.00006	0	255	147
317.99994	100.0	282.00006	0	255	150
319.99994	100.0	280.00006	0	255	152
321.99994	100.0	278.00006	0	255	155
323.99994	100.0	276.00006	0	255	158
325.99994	100.0	274.00006	0	255	160
327.99994	100.0	272.00006	0	255	163
329.99994	100.0	270.00006	0	255	165
331.99994	100.0	268.00006	0	255	168
333.99994	100.0	266.00006	0	255	170
335.9999	100.0	264.00006	0	255	173
337.9999	100.0	262.00006	0	255	175
339.9999	100.0	260.00006	0	255	178
341.99994	100.0	258.00006	0	255	181
343.99994	100.0	256.00006	0	255	183
345.99994	100.0	254.00009	0	255	186
347.99994	100.0	252.00009	0	255	188
349.99994	100.0	250.00009	0	255	191
351.9999	100.0	248.00008	0	255	193
353.9999	100.0	246.00009	0	255	196
355.9999	100.0	244.00009	0	255	198
357.9999	100.0	242.00009	0	255	201
359.9999	100.0	240.00009	0	255	203
361.9999	100.0	238.00009	0	255	206
363.9999	100.0	236.00009	0	255	209
365.9999	100.0	234.0001	0	255	211
367.99988	100.0	232.00009	0	255	214
369.99988	100.0	230.00009	0	255	216
371.99988	100.0	228.0001	0	255	219
373.99988	100.0	226.0001	0	255	221
375.9999	100.0	224.0001	0	255	224
377.9999	100.0	222.00012	0	255	226
379.9999	100.0	220.00012	0	255	229
381.9999	100.0	218.00012	0	255	232
383.99988	100.0	216.0001	0	255	234
385.99988	100.0	214.00012	0	255	237
387.99988	100.0	212.00012	0	255	239
389.99988	100.0	210.00012	0	255	242
391.99988	100.0	208.00012	0	255	244
393.99988	100.0	206.00012	0	255	247
395.99988	100.0	204.00014	0	255	249
397.99988	100.0	202.00014	0	255	252
399.99985	100.0	200.00012	0	255	254
400.0	100.0	200.0	255	0	0
200.0	100.0	400.0	0	0	255
202.0	102.0	400.0	2	252	0
203.98	102.0	398.02	2	252	2
205.96	102.0	396.04	2	252	5
207.94	102.0	394.06	2	252	7
209.92	102.0	392.08	2	252	10
211.9	102.0	390.1	2	252	12
213.88	102.0	388.12	2	252	15
215.86	102.0	386.13998	2	252	17
217.84	102.0	384.16	2	252	20
219.82	102.0	382.18	2	252	22
221.8	102.0	380.2	2	252	25
223.78	102.0	378.22	2	252	28
225.75998	102.0	376.24	2	252	30
227.73999	102.0	374.26	2	252	33
229.72	102.0	372.28	2	252	35
231.70001	102.0	370.3	2	252	38
233.68001	102.0	368.32	2	252	40
235.66	102.0	366.34	2	252	43
237.64	102.0	364.36	2	252	45
239.62	102.0	362.38	2	252	48
241.6	102.0	360.39996	2	252	51
243.57999	102.0	358.42	2	252	53
245.56001	102.0	356.44	2	252	56
247.54001	102.0	354.46002	2	252	58
249.52002	102.0	352.48	2	252	61
251.50002	102.0	350.5	2	252	63
253.48001	102.00001	348.52002	2	252	66
255.46002	102.0	346.54	2	252	68
257.44	102.0	344.56	2	252	71
259.42	102.00001	342.58	2	252	73
261.4	102.0	340.60004	2	252	76
263.38	102.0	338.62003	2	252	79
265.36	102.0	336.64	2	252	81
267.34	102.00001	334.66003	2	252	84
269.32	102.0	332.68002	2	252	86
271.3	102.0	330.7	2	252	89
273.27997	102.00001	328.72003	2	252	91
275.26	102.0	326.74002	2	252	94
277.24	102.0	324.76	2	252	96
279.21997	102.0	322.78003	2	252	99
281.19998	102.0	320.80005	2	252	101
283.18	102.0	318.82004	2	252	104
285.15997	102.0	316.84003	2	252	107
287.13998	102.0	314.86005	2	252	109
289.11996	102.0	312.88004	2	252	112
291.09998	102.0	310.90005	2	252	114
293.08	102.0	308.92004	2	252	117
295.05997	102.0	306.94006	2	252	119
297.03998	102.0	304.96005	2	252	122
299.01996	102.0	302.98004	2	252	124
300.99997	102.0	301.00006	2	252	127
302.97998	102.0	299.02002	2	252	130
304.95996	102.0	297.04004	2	252	132
306.93997	102.0	295.06003	2	252	135
308.91995	102.0	293.08005	2	252	137
310.89996	102.0	291.10004	2	252	140
312.87994	102.0	289.12006	2	252	142
314.85995	102.0	287.14005	2	252	145
316.83994	102.0	285.16006	2	252	147
318.81995	102.0	283.18005	2	252	150
320.79996	102.0	281.20004	2	252	152
322.77997	102.0	279.22003	2	252	155
324.75995	102.0	277.24005	2	252	158
326.73993	102.0	275.26007	2	252	160
328.71994	102.0	273.28006	2	252	163
330.69995	102.0	271.30005	2	252	165
332.67993	102.0	269.32007	2	252	168
334.65994	102.0	267.3401	2	252	170
336.63992	102.0	265.36005	2	252	173
338.61993	102.0	263.38007	2	252	175
340.5999	102.0	261.4001	2	252	178
342.57993	102.0	259.42007	2	252	181
344.55994	102.0	257.44006	2	252	183
346.53992	102.0	255.46008	2	252	186
348.51993	102.0	253.48007	2	252	188
350.49994	102.0	251.50008	2	252	191
352.47992	102.0	249.52008	2	252	193
354.4599	102.0	247.5401	2	252	196
356.4399	102.0	245.56009	2	252	198
358.41992	102.0	243.5801	2	252	201
360.3999	102.0	241.60008	2	252	203
362.3799	102.0	239.62009	2	252	206
364.35992	102.0	237.6401	2	252	209
366.3399	102.0	235.6601	2	252	211
368.3199	102.0	233.6801	2	252	214
370.2999	102.0	231.7001	2	252	216
372.2799	102.0	229.72011	2	252	219
374.2599	102.0	227.74011	2	252	221
376.2399	102.0	225.7601	2	252	224
378.2199	102.0	223.78012	2	252	226
380.1999	102.0	221.80011	2	252	229
382.1799	102.0	219.82011	2	252	232
384.15988	102.0	217.84012	2	252	234
386.13986	102.0	215.8601	2	252	237
388.11987	102.0	213.88013	2	252	239
390.09988	102.0	211.90012	2	252	242
392.0799	102.0	209.92012	2	252	244
394.05988	102.0	207.94012	2	252	247
396.0399	102.0	205.96013	2	252	249
398.0199	102.0	203.98013	2	252	252
399.99985	102.0	202.00012	2	252	254
400.0	102.0	202.0	255	0	0
202.0	102.0	400.0	0	0	255
204.0	104.0	400.0	5	249	0
205.96	104.0	398.04	5	249	2
207.92	104.0	396.08	5	249	5
209.88	104.00001	394.12	5	249	7
211.84	104.0	392.16	5	249	10
213.8	103.99999	390.2	5	249	12
215.76	104.0	388.24	5	249	15
217.72	104.0	386.28	5	249	17
219.68001	104.0	384.32	5	249	20
221.64	104.0	382.36	5	249	22
223.6	104.00001	380.4	5	249	25
225.56	104.0	378.44	5	249	28
227.51999	103.99999	376.47998	5	249	30
229.47998	104.0	374.52	5	249	33
231.44	104.0	372.56	5	249	35
233.40001	104.0	370.6	5	249	38
235.36	104.0	368.64	5	249	40
237.31999	104.0	366.68	5	249	43
239.28	104.0	364.72	5	249	45
241.24002	104.0	362.76	5	249	48
243.20001	104.0	360.8	5	249	51
245.16	104.0	358.84	5	249	53
247.12001	104.0	356.88	5	249	56
249.08002	104.00001	354.92	5	249	58
251.04001	104.00001	352.96002	5	249	61
253.00002	104.0	351.0	5	249	63
254.96002	104.0	349.04	5	249	66
256.92	104.0	347.08002	5	249	68
258.88	104.00001	345.12	5	249	71
260.84003	104.0	343.16	5	249	73
262.8	104.0	341.2	5	249	76
264.76	104.00001	339.24002	5	249	79
266.72	104.0	337.28003	5	249	81
268.68	104.0	335.32	5	249	84
270.64	104.0	333.36002	5	249	86
272.59998	104.0	331.40002	5	249	89
274.56	104.0	329.44	5	249	91
276.52	104.0	327.48004	5	249	94
278.47998	104.0	325.52002	5	249	96
280.43997	104.0	323.56006	5	249	99
282.4	104.0	321.60004	5	249	101
284.36	104.0	319.64005	5	249	104
286.31998	104.0	317.68002	5	249	107
288.27997	104.0	315.72003	5	249	109
290.24	104.0	313.76004	5	249	112
292.19998	104.0	311.80005	5	249	114
294.15997	104.0	309.84003	5	249	117
296.11996	104.0	307.88007	5	249	119
298.07996	104.0	305.92004	5	249	122
300.03998	104.0	303.96005	5	249	124
301.99997	104.0	302.00006	5	249	127
303.95996	104.0	300.04004	5	249	130
305.91998	104.0	298.08002	5	249	132
307.87997	104.0	296.12003	5	249	135
309.83997	104.0	294.16003	5	249	137
311.79996	104.0	292.20004	5	249	140
313.75995	104.0	290.24005	5	249	142
315.71997	104.0	288.28003	5	249	145
317.67993	104.0	286.32007	5	249	147
319.63995	104.0	284.36005	5	249	150
321.59995	104.0	282.40005	5	249	152
323.55994	104.0	280.44006	5	249	155
325.51993	104.0	278.48007	5	249	158
327.47995	104.0	276.52008	5	249	160
329.43994	104.0	274.56006	5	249	163
331.39993	104.0	272.60004	5	249	165
333.35995	104.0	270.64008	5	249	168
335.31995	104.0	268.68005	5	249	170
337.2799	104.0	266.72006	5	249	173
339.23993	104.0	264.76007	5	249	175
341.19992	104.0	262.80008	5	249	178
343.1599	104.0	260.8401	5	249	181
345.11993	104.0	258.88007	5	249	183
347.07993	104.0	256.92007	5	249	186
349.03992	104.0	254.96008	5	249	188
350.99994	104.0	253.00008	5	249	191
352.9599	104.0	251.04008	5	249	193
354.91992	104.0	249.08008	5	249	196
356.8799	104.0	247.12009	5	249	198
358.8399	104.0	245.1601	5	249	201
360.79993	104.0	243.20009	5	249	203
362.75992	104.0	241.24008	5	249	206
364.7199	104.0	239.28009	5	249	209
366.67993	104.0	237.3201	5	249	211
368.6399	104.0	235.36009	5	249	214
370.59988	104.0	233.40012	5	249	216
372.5599	104.0	231.44011	5	249	219
374.5199	104.0	229.4801	5	249	221
376.4799	104.0	227.5201	5	249	224
378.4399	104.0	225.56012	5	249	226
380.3999	104.0	223.60011	5	249	229
382.3599	104.0	221.6401	5	249	232
384.3199	104.0	219.68011	5	249	234
386.27988	104.0	217.72012	5	249	237
388.23987	104.0	215.76012	5	249	239
390.1999	104.0	213.80013	5	249	242
392.15988	104.0	211.84012	5	249	244
394.11987	104.0	209.88011	5	249	247
396.0799	104.0	207.92014	5	249	249
398.0399	104.0	205.96013	5	249	252
399.99985	104.0	204.00012	5	249	254
400.0	104.0	204.0	255	0	0
204.0	104.0	400.0	0	0	255
206.0	106.0	400.0	7	247	0
207.94	106.0	398.06	7	247	2
209.88	106.00001	396.12	7	247	5
211.82	106.0	394.18	7	247	7
213.76	105.99999	392.24	7	247	10
215.7	106.0	390.3	7	247	12
217.64	106.0	388.36	7	247	15
219.58	106.0	386.41998	7	247	17
221.52	106.0	384.48	7	247	20
223.46	106.0	382.54	7	247	22
225.40001	106.0	380.6	7	247	25
227.34	105.99999	378.66	7	247	28
229.28	106.0	376.72	7	247	30
231.22	106.0	374.78	7	247	33
233.16	106.0	372.84	7	247	35
235.1	106.00001	370.9	7	247	38
237.04001	106.0	368.96	7	247	40
238.98	106.0	367.02	7	247	43
240.92	106.0	365.08002	7	247	45
242.86002	106.0	363.14	7	247	48
244.79999	106.0	361.19998	7	247	51
246.73999	106.0	359.26	7	247	53
248.68001	106.0	357.32	7	247	56
250.62001	106.0	355.38	7	247	58
252.56001	106.0	353.44	7	247	61
254.50002	106.0	351.5	7	247	63
256.44	106.0	349.56	7	247	66
258.38	106.00001	347.62	7	247	68
260.32	106.0	345.68	7	247	71
262.26	106.0	343.74	7	247	73
264.2	106.0	341.80002	7	247	76
266.14	106.0	339.86002	7	247	79
268.08002	106.0	337.92	7	247	81
270.02002	106.0	335.98	7	247	84
271.96002	106.0	334.04	7	247	86
273.9	106.0	332.1	7	247	89
275.84	106.0	330.16	7	247	91
277.78	106.0	328.22003	7	247	94
279.72	106.00001	326.28003	7	247	96
281.65997	106.0	324.34003	7	247	99
283.59998	106.0	322.40002	7	247	101
285.53998	106.0	320.46002	7	247	104
287.47998	106.0	318.52002	7	247	107
289.41998	106.0	316.58002	7	247	109
291.36	106.0	314.64005	7	247	112
293.3	106.0	312.70004	7	247	114
295.24	106.0	310.76004	7	247	117
297.17996	106.0	308.82007	7	247	119
299.11996	106.0	306.88007	7	247	122
301.05997	106.0	304.94006	7	247	124
302.99997	106.0	303.00006	7	247	127
304.93997	106.0	301.06003	7	247	130
306.87997	106.0	299.12003	7	247	132
308.81998	106.0	297.18002	7	247	135
310.75995	106.0	295.24005	7	247	137
312.69995	106.0	293.30005	7	247	140
314.63995	106.0	291.36005	7	247	142
316.57996	106.0	289.42004	7	247	145
318.51996	106.0	287.48004	7	247	147
320.45996	106.0	285.54004	7	247	150
322.39996	106.0	283.60004	7	247	152
324.33997	106.0	281.66003	7	247	155
326.27994	106.0	279.72006	7	247	158
328.21994	106.0	277.78006	7	247	160
330.15994	106.0	275.84006	7	247	163
332.09995	106.0	273.90005	7	247	165
334.03995	106.0	271.96008	7	247	168
335.97995	106.0	270.02008	7	247	170
337.91992	106.0	268.08008	7	247	173
339.85992	106.0	266.14008	7	247	175
341.79993	106.0	264.20007	7	247	178
343.73993	106.0	262.26007	7	247	181
345.67993	106.0	260.32007	7	247	183
347.61993	106.0	258.38007	7	247	186
349.55994	106.0	256.44006	7	247	188
351.49994	106.0	254.50008	7	247	191
353.4399	106.0	252.56007	7	247	193
355.3799	106.0	250.62009	7	247	196
357.31992	106.0	248.68008	7	247	198
359.25992	106.0	246.74008	7	247	201
361.19992	106.0	244.8001	7	247	203
363.13992	106.0	242.8601	7	247	206
365.07993	106.0	240.9201	7	247	209
367.01993	106.0	238.9801	7	247	211
368.9599	106.0	237.0401	7	247	214
370.8999	106.0	235.1001	7	247	216
372.8399	106.0	233.16011	7	247	219
374.7799	106.0	231.22011	7	247	221
376.7199	106.0	229.2801	7	247	224
378.6599	106.0	227.34012	7	247	226
380.5999	106.0	225.40012	7	247	229
382.53992	106.0	223.46011	7	247	232
384.4799	106.0	221.52011	7	247	234
386.4199	106.0	219.58011	7	247	237
388.3599	106.0	217.64012	7	247	239
390.29987	106.0	215.70012	7	247	242
392.23987	106.0	213.76012	7	247	244
394.17987	106.0	211.82011	7	247	247
396.11987	106.0	209.88013	7	247	249
398.05988	106.0	207.94012	7	247	252
399.99985	106.0	206.00012	7	247	254
400.0	106.0	206.0	255	0	0
206.0	106.0	400.0	0	0	255
208.0	108.0	400.0	10	244	0
209.92	108.0	398.08	10	244	2
211.84	108.0	396.16	10	244	5
213.76001	108.0	394.24	10	244	7
215.68	108.0	392.32	10	244	10
217.59999	108.0	390.4	10	244	12
219.52	108.0	388.48	10	244	15
221.44	108.0	386.56	10	244	17
223.36	108.0	384.63998	10	244	20
225.28	108.00001	382.72	10	244	22
227.20001	108.0	380.8	10	244	25
229.12	107.99999	378.88	10	244	28
231.03998	108.0	376.96	10	244	30
232.95999	108.0	375.04	10	244	33
234.88	108.0	373.12	10	244	35
236.8	108.0	371.2	10	244	38
238.72	108.0	369.28	10	244	40
240.64	108.0	367.36	10	244	43
242.56	108.0	365.44	10	244	45
244.48001	108.0	363.52002	10	244	48
246.4	108.0	361.59998	10	244	51
248.32	107.99999	359.68	10	244	53
250.24	108.0	357.76	10	244	56
252.16002	108.0	355.84	10	244	58
254.08002	108.00001	353.92	10	244	61
256.0	108.0	352.0	10	244	63
257.92	108.0	350.08002	10	244	66
259.84	108.00001	348.16	10	244	68
261.76	108.0	346.24	10	244	71
263.68	108.00001	344.32	10	244	73
265.6	108.0	342.40002	10	244	76
267.52002	108.0	340.48004	10	244	79
269.44	108.00001	338.56003	10	244	81
271.36	108.0	336.64	10	244	84
273.28	108.0	334.72003	10	244	86
275.19998	108.0	332.80002	10	244	89
277.12	108.0	330.88	10	244	91
279.03998	108.0	328.96002	10	244	94
280.96	108.0	327.04004	10	244	96
282.87997	108.0	325.12006	10	244	99
284.8	108.00001	323.20004	10	244	101
286.71997	108.0	321.28003	10	244	104
288.63998	108.0	319.36005	10	244	107
290.55997	108.0	317.44003	10	244	109
292.47998	108.0	315.52005	10	244	112
294.39996	108.0	313.60004	10	244	114
296.31998	108.0	311.68005	10	244	117
298.23996	108.0	309.76007	10	244	119
300.15997	108.0	307.84006	10	244	122
302.07996	108.0	305.92004	10	244	124
303.99997	108.0	304.00006	10	244	127
305.91995	108.0	302.08005	10	244	130
307.83997	108.0	300.16003	10	244	132
309.75995	108.0	298.24005	10	244	135
311.67996	108.0	296.32004	10	244	137
313.59995	108.0	294.40005	10	244	140
315.51996	108.0	292.48004	10	244	142
317.43994	108.0	290.56006	10	244	145
319.35995	108.0	288.64005	10	244	147
321.27994	108.0	286.72006	10	244	150
323.19995	108.0	284.80005	10	244	152
325.11993	108.0	282.88007	10	244	155
327.03995	108.0	280.96008	10	244	158
328.95993	108.0	279.04004	10	244	160
330.87994	108.0	277.12006	10	244	163
332.79993	108.0	275.20007	10	244	165
334.71994	108.0	273.2801	10	244	168
336.63995	108.0	271.36005	10	244	170
338.55994	108.0	269.44006	10	244	173
340.47992	108.0	267.52008	10	244	175
342.39993	108.0	265.60007	10	244	178
344.31992	108.0	263.68005	10	244	181
346.23993	108.0	261.76007	10	244	183
348.15994	108.0	259.8401	10	244	186
350.07993	108.0	257.92007	10	244	188
351.99994	108.0	256.00006	10	244	191
353.91992	108.0	254.08008	10	244	193
355.8399	108.0	252.1601	10	244	196
357.75992	108.0	250.24008	10	244	198
359.6799	108.0	248.32008	10	244	201
361.5999	108.0	246.40009	10	244	203
363.51993	108.0	244.4801	10	244	206
365.4399	108.0	242.56009	10	244	209
367.35992	108.0	240.64009	10	244	211
369.2799	108.0	238.7201	10	244	214
371.1999	108.0	236.80011	10	244	216
373.1199	108.0	234.88011	10	244	219
375.0399	108.0	232.9601	10	244	221
376.9599	108.0	231.0401	10	244	224
378.8799	108.0	229.12012	10	244	226
380.7999	108.0	227.20012	10	244	229
382.7199	108.0	225.2801	10	244	232
384.6399	108.0	223.3601	10	244	234
386.55988	108.0	221.44012	10	244	237
388.4799	108.0	219.52013	10	244	239
390.39987	108.0	217.60011	10	244	242
392.3199	108.0	215.68011	10	244	244
394.2399	108.0	213.76012	10	244	247
396.15988	108.0	211.84013	10	244	249
398.0799	108.0	209.92012	10	244	252
399.99985	108.0	208.00012	10	244	254
400.0	108.0	208.0	255	0	0
208.0	108.0	400.0	0	0	255
210.0	110.0	400.0	12	242	0
211.90001	110.0	398.1	12	242	2
213.8	110.0	396.2	12	242	5
215.70001	110.00001	394.3	12	242	7
217.59999	110.0	392.4	12	242	10
219.5	110.0	390.5	12	242	12
221.4	110.0	388.6	12	242	15
223.3	110.0	386.7	12	242	17
225.2	110.0	384.8	12	242	20
227.1	110.00001	382.9	12	242	22
229.0	110.00001	381.0	12	242	25
230.9	110.0	379.1	12	242	28
232.79999	110.0	377.2	12	242	30
234.69998	109.99999	375.3	12	242	33
236.6	110.0	373.4	12	242	35
238.5	110.0	371.5	12	242	38
240.40001	110.0	369.6	12	242	40
242.3	110.0	367.7	12	242	43
244.2	110.0	365.8	12	242	45
246.1	110.0	363.9	12	242	48
248.0	109.99999	361.99997	12	242	51
249.9	110.0	360.1	12	242	53
251.8	110.0	358.2	12	242	56
253.70001	110.0	356.30002	12	242	58
255.6	110.0	354.40002	12	242	61
257.5	110.0	352.5	12	242	63
259.40002	110.0	350.6	12	242	66
261.30002	110.0	348.7	12	242	68
263.2	110.0	346.8	12	242	71
265.1	110.00001	344.9	12	242	73
267.0	110.0	343.00003	12	242	76
268.9	110.00001	341.10004	12	242	79
270.8	110.00001	339.2	12	242	81
272.7	110.00001	337.30002	12	242	84
274.6	110.0	335.40002	12	242	86
276.5	110.0	333.5	12	242	89
278.4	110.0	331.6	12	242	91
280.3	110.0	329.7	12	242	94
282.2	110.0	327.80002	12	242	96
284.09998	110.0	325.90002	12	242	99
286.0	110.0	324.00003	12	242	101
287.9	110.0	322.10004	12	242	104
289.8	110.0	320.20004	12	242	107
291.69998	110.0	318.30005	12	242	109
293.59998	110.0	316.40005	12	242	112
295.49997	110.0	314.50006	12	242	114
297.39996	110.0	312.60004	12	242	117
299.29996	110.0	310.70004	12	242	119
301.19995	110.0	308.80005	12	242	122
303.09998	110.0	306.90005	12	242	124
304.99997	110.0	305.00006	12	242	127
306.89996	110.0	303.10004	12	242	130
308.79996	110.0	301.20004	12	242	132
310.69995	110.0	299.30005	12	242	135
312.59995	110.0	297.40005	12	242	137
314.49994	110.0	295.50006	12	242	140
316.39996	110.0	293.60004	12	242	142
318.29996	110.0	291.70004	12	242	145
320.19995	110.0	289.80005	12	242	147
322.09995	110.0	287.90005	12	242	150
323.99994	110.0	286.00006	12	242	152
325.89996	110.0	284.10004	12	242	155
327.79993	110.0	282.20007	12	242	158
329.69995	110.0	280.30005	12	242	160
331.59995	110.0	278.40005	12	242	163
333.49994	110.0	276.50006	12	242	165
335.39996	110.0	274.60007	12	242	168
337.29996	110.0	272.70007	12	242	170
339.19992	110.0	270.80005	12	242	173
341.0999	110.0	268.90005	12	242	175
342.99994	110.0	267.00006	12	242	178
344.89993	110.0	265.10007	12	242	181
346.79993	110.0	263.20007	12	242	183
348.69992	110.0	261.30008	12	242	186
350.59995	110.0	259.4001	12	242	188
352.49994	110.0	257.50006	12	242	191
354.3999	110.0	255.60008	12	242	193
356.2999	110.0	253.70007	12	242	196
358.19992	110.0	251.80008	12	242	198
360.0999	110.0	249.90009	12	242	201
361.9999	110.0	248.00009	12	242	203
363.8999	110.0	246.1001	12	242	206
365.79993	110.0	244.2001	12	242	209
367.69992	110.0	242.3001	12	242	211
369.59988	110.0	240.40009	12	242	214
371.49988	110.0	238.50009	12	242	216
373.3999	110.0	236.6001	12	242	219
375.2999	110.0	234.7001	12	242	221
377.1999	110.0	232.8001	12	242	224
379.0999	110.0	230.90012	12	242	226
380.9999	110.0	229.0001	12	242	229
382.8999	110.0	227.10011	12	242	232
384.79987	110.0	225.2001	12	242	234
386.6999	110.0	223.30011	12	242	237
388.59988	110.0	221.40012	12	242	239
390.49988	110.0	219.50012	12	242	242
392.39987	110.0	217.60011	12	242	244
394.2999	110.0	215.70012	12	242	247
396.1999	110.0	213.80013	12	242	249
398.09988	110.0	211.90013	12	242	252
399.99988	110.0	210.00012	12	242	254
400.0	110.0	210.0	255	0	0
210.0	110.0	400.0	0	0	255
212.0	112.0	400.0	15	239	0
213.88	112.00001	398.12	15	239	2
215.76001	112.0	396.24	15	239	5
217.64	112.0	394.36	15	239	7
219.51999	112.0	392.48	15	239	10
221.4	112.0	390.6	15	239	12
223.28	112.0	388.72	15	239	15
225.16	112.0	386.84	15	239	17
227.04001	112.0	384.96	15	239	20
228.92	112.00001	383.08	15	239	22
230.8	112.0	381.2	15	239	25
232.68	112.0	379.32	15	239	28
234.56	111.99999	377.44	15	239	30
236.44	112.0	375.56	15	239	33
238.32	112.0	373.68	15	239	35
240.20001	112.0	371.8	15	239	38
242.08	112.0	369.91998	15	239	40
243.95999	112.0	368.04	15	239	43
245.84	112.0	366.16	15	239	45
247.72	112.0	364.28	15	239	48
249.6	111.99999	362.39996	15	239	51
251.48001	112.0	360.52002	15	239	53
253.36002	112.0	358.64	15	239	56
255.24	112.0	356.76	15	239	58
257.12	112.0	354.88	15	239	61
259.0	112.0	353.0	15	239	63
260.88	112.00001	351.12	15	239	66
262.76	112.0	349.24	15	239	68
264.64	112.0	347.36	15	239	71
266.52002	112.0	345.48	15	239	73
268.4	112.00001	343.60004	15	239	76
270.28	112.0	341.72003	15	239	79
272.16	112.0	339.84003	15	239	81
274.03998	112.0	337.96002	15	239	84
275.91998	112.00001	336.08002	15	239	86
277.8	112.0	334.2	15	239	89
279.68	112.0	332.32	15	239	91
281.56	112.0	330.44003	15	239	94
283.44	112.00001	328.56003	15	239	96
285.31998	112.0	326.68005	15	239	99
287.19998	112.0	324.80005	15	239	101
289.08	112.0	322.92004	15	239	104
290.96	112.00001	321.04004	15	239	107
292.83997	112.0	319.16003	15	239	109
294.71997	112.0	317.28003	15	239	112
296.59998	112.0	315.40002	15	239	114
298.47998	112.0	313.52005	15	239	117
300.36	112.0	311.64005	15	239	119
302.23996	112.0	309.76004	15	239	122
304.11996	112.0	307.88007	15	239	124
305.99997	112.0	306.00006	15	239	127
307.87997	112.0	304.12003	15	239	130
309.75995	112.0	302.24005	15	239	132
311.63995	112.0	300.36005	15	239	135
313.51996	112.0	298.48004	15	239	137
315.39996	112.0	296.60004	15	239	140
317.27997	112.0	294.72003	15	239	142
319.15997	112.0	292.84003	15	239	145
321.03995	112.0	290.96005	15	239	147
322.91995	112.0	289.08005	15	239	150
324.79996	112.0	287.20004	15	239	152
326.67996	112.0	285.32007	15	239	155
328.55994	112.0	283.44006	15	239	158
330.43994	112.0	281.56006	15	239	160
332.31995	112.0	279.68005	15	239	163
334.19995	112.0	277.80005	15	239	165
336.07996	112.0	275.92007	15	239	168
337.95996	112.0	274.04007	15	239	170
339.8399	112.0	272.16006	15	239	173
341.7199	112.0	270.28006	15	239	175
343.5999	112.0	268.40005	15	239	178
345.47992	112.0	266.52008	15	239	181
347.35992	112.0	264.64008	15	239	183
349.23993	112.0	262.76007	15	239	186
351.11993	112.0	260.88007	15	239	188
352.99994	112.0	259.00006	15	239	191
354.8799	112.0	257.12006	15	239	193
356.75992	112.0	255.24008	15	239	196
358.63992	112.0	253.36008	15	239	198
360.5199	112.0	251.48009	15	239	201
362.3999	112.0	249.60008	15	239	203
364.2799	112.0	247.7201	15	239	206
366.1599	112.0	245.84009	15	239	209
368.03992	112.0	243.9601	15	239	211
369.9199	112.0	242.0801	15	239	214
371.7999	112.0	240.2001	15	239	216
373.6799	112.0	238.3201	15	239	219
375.5599	112.0	236.4401	15	239	221
377.4399	112.0	234.5601	15	239	224
379.31992	112.0	232.68011	15	239	226
381.1999	112.0	230.80011	15	239	229
383.0799	112.0	228.9201	15	239	232
384.95987	112.0	227.0401	15	239	234
386.83987	112.0	225.16013	15	239	237
388.71988	112.0	223.28012	15	239	239
390.59988	112.0	221.40012	15	239	242
392.4799	112.0	219.52011	15	239	244
394.3599	112.0	217.6401	15	239	247
396.2399	112.0	215.76013	15	239	249
398.1199	112.0	213.88013	15	239	252
399.99988	112.0	212.00012	15	239	254
400.0	112.0	212.0	255	0	0
212.0	112.0	400.0	0	0	255
214.0	114.0	400.0	17	237	0
215.86	114.0	398.14	17	237	2
217.72	114.0	396.28	17	237	5
219.58	114.0	394.42	17	237	7
221.44	113.99999	392.56	17	237	10
223.3	113.99999	390.7	17	237	12
225.16	113.99999	388.84	17	237	15
227.02	114.0	386.98	17	237	17
228.88	114.0	385.12	17	237	20
230.74	114.0	383.26	17	237	22
232.6	114.00001	381.4	17	237	25
234.45999	114.0	379.54	17	237	28
236.31998	114.0	377.68	17	237	30
238.18	114.0	375.82	17	237	33
240.04001	114.0	373.96	17	237	35
241.90001	114.0	372.1	17	237	38
243.76001	114.0	370.24	17	237	40
245.62	114.0	368.38	17	237	43
247.48	114.0	366.52	17	237	45
249.34	114.00001	364.66	17	237	48
251.20001	114.0	362.8	17	237	51
253.06	114.0	360.94	17	237	53
254.92001	114.0	359.08002	17	237	56
256.78003	114.0	357.22	17	237	58
258.64	114.0	355.36002	17	237	61
260.5	114.0	353.5	17	237	63
262.36002	114.0	351.64	17	237	66
264.22	114.0	349.78	17	237	68
266.08002	114.0	347.92	17	237	71
267.94	114.0	346.06	17	237	73
269.8	114.0	344.2	17	237	76
271.66	114.0	342.34003	17	237	79
273.52002	114.0	340.48004	17	237	81
275.38	114.0	338.62003	17	237	84
277.24	114.00001	336.76	17	237	86
279.09998	114.00001	334.90002	17	237	89
280.96	114.00001	333.04	17	237	91
282.82	114.0	331.18002	17	237	94
284.68	114.0	329.32	17	237	96
286.53998	114.0	327.46002	17	237	99
288.39996	114.0	325.60004	17	237	101
290.25998	114.0	323.74005	17	237	104
292.12	114.0	321.88004	17	237	107
293.97998	114.0	320.02002	17	237	109
295.83997	114.0	318.16003	17	237	112
297.69998	114.0	316.30005	17	237	114
299.56	114.0	314.44003	17	237	117
301.41998	114.0	312.58005	17	237	119
303.27997	114.0	310.72006	17	237	122
305.13995	114.0	308.86005	17	237	124
306.99997	114.0	307.00006	17	237	127
308.85995	114.0	305.14005	17	237	130
310.71997	114.0	303.28003	17	237	132
312.57996	114.0	301.42004	17	237	135
314.43994	114.0	299.56006	17	237	137
316.29996	114.0	297.70004	17	237	140
318.15997	114.0	295.84003	17	237	142
320.01996	114.0	293.98004	17	237	145
321.87994	114.0	292.12006	17	237	147
323.73996	114.0	290.26004	17	237	150
325.59995	114.0	288.40005	17	237	152
327.45996	114.0	286.54004	17	237	155
329.31995	114.0	284.68005	17	237	158
331.17993	114.0	282.82007	17	237	160
333.03995	114.0	280.96005	17	237	163
334.89996	114.0	279.10004	17	237	165
336.75995	114.0	277.24005	17	237	168
338.61993	114.0	275.38007	17	237	170
340.47992	114.0	273.52008	17	237	173
342.33994	114.0	271.66006	17	237	175
344.19992	114.0	269.80008	17	237	178
346.05994	114.0	267.94006	17	237	181
347.91992	114.0	266.08008	17	237	183
349.77994	114.0	264.22006	17	237	186
351.63992	114.0	262.36008	17	237	188
353.49994	114.0	260.50006	17	237	191
355.35992	114.0	258.64008	17	237	193
357.2199	114.0	256.7801	17	237	196
359.07993	114.0	254.92007	17	237	198
360.9399	114.0	253.06009	17	237	201
362.79993	114.0	251.20009	17	237	203
364.6599	114.0	249.34009	17	237	206
366.51993	114.0	247.48007	17	237	209
368.3799	114.0	245.62009	17	237	211
370.2399	114.0	243.76009	17	237	214
372.09988	114.0	241.90009	17	237	216
373.9599	114.0	240.0401	17	237	219
375.8199	114.0	238.1801	17	237	221
377.6799	114.0	236.3201	17	237	224
379.53992	114.0	234.46011	17	237	226
381.3999	114.0	232.60011	17	237	229
383.25992	114.0	230.74011	17	237	232
385.11987	114.0	228.88011	17	237	234
386.9799	114.0	227.02011	17	237	237
388.83987	114.0	225.16011	17	237	239
390.6999	114.0	223.30011	17	237	242
392.55988	114.0	221.44011	17	237	244
394.4199	114.0	219.58011	17	237	247
396.2799	114.0	217.72012	17	237	249
398.1399	114.0	215.86012	17	237	252
399.99988	114.0	214.00012	17	237	254
400.0	114.0	214.0	255	0	0
214.0	114.0	400.0	0	0	255
216.0	116.0	400.0	20	234	0
217.84	116.00001	398.16	20	234	2
219.68001	116.0	396.32	20	234	5
221.52	116.00001	394.48	20	234	7
223.36	116.0	392.64	20	234	10
225.2	116.0	390.8	20	234	12
227.04	116.0	388.96	20	234	15
228.88	116.0	387.12	20	234	17
230.72	116.0	385.28	20	234	20
232.56001	116.0	383.44	20	234	22
234.40001	116.0	381.6	20	234	25
236.23999	116.0	379.76	20	234	28
238.07999	116.0	377.91998	20	234	30
239.91998	116.0	376.08	20	234	33
241.76001	116.0	374.24	20	234	35
243.6	116.00001	372.4	20	234	38
245.44	116.0	370.56	20	234	40
247.28	116.0	368.72	20	234	43
249.12	116.0	366.88	20	234	45
250.96002	116.0	365.04	20	234	48
252.79999	116.0	363.19998	20	234	51
254.63998	116.0	361.36002	20	234	53
256.48	116.0	359.52002	20	234	56
258.32	116.0	357.68	20	234	58
260.16003	116.0	355.84	20	234	61
262.0	116.0	354.0	20	234	63
263.84	116.00001	352.16	20	234	66
265.68002	116.0	350.32	20	234	68
267.52002	116.0	348.48	20	234	71
269.36002	116.0	346.64	20	234	73
271.2	116.0	344.80002	20	234	76
273.04	116.0	342.96002	20	234	79
274.88	116.0	341.12003	20	234	81
276.72	116.0	339.28003	20	234	84
278.56	116.00001	337.44	20	234	86
280.4	116.0	335.6	20	234	89
282.24	116.0	333.76	20	234	91
284.08	116.00001	331.92004	20	234	94
285.91998	116.0	330.08002	20	234	96
287.75998	116.0	328.24005	20	234	99
289.59998	116.0	326.40002	20	234	101
291.44	116.0	324.56003	20	234	104
293.28	116.00001	322.72003	20	234	107
295.12	116.0	320.88004	20	234	109
296.95996	116.0	319.04004	20	234	112
298.8	116.0	317.20004	20	234	114
300.63998	116.0	315.36005	20	234	117
302.47998	116.0	313.52005	20	234	119
